# .PCD v0.7 - Point Cloud Data file format
VERSION 0.7
FIELDS x y z rgb
SIZE 4 4 4 4
TYPE F F F F
COUNT 1 1 1 1
WIDTH 188
HEIGHT 1
VIEWPOINT 0 0 0 1 0 0 0
POINTS 188
DATA ascii
0.53688645 -0.33303219 0.75539786 2.582998e-39
0.54353517 -0.33323911 0.75867045 3.59715e-39
0.55600947 -0.33092159 0.7558406 4.612451e-39
0.56345105 -0.33236319 0.7503112 4.8890449e-39
0.52984273 -0.3223522 0.7511757 1.568465e-39
0.53465122 -0.32474208 0.75503755 2.6752049e-39
0.5446915 -0.32517579 0.75844479 3.3209442e-39
0.5550372 -0.32454672 0.75642586 5.0738019e-39
0.5620532 -0.32334656 0.75457591 4.8894092e-39
0.52993572 -0.31875026 0.75106215 2.8599577e-39
0.53385186 -0.31468225 0.75549012 3.5979067e-39
0.54461884 -0.31480697 0.75894284 4.889405e-39
0.55506933 -0.31523883 0.75785291 5.0738019e-39
0.5638209 -0.31468925 0.75539994 5.1660017e-39
0.57118249 -0.31490576 0.75064766 5.1659947e-39
0.53410476 -0.30515519 0.75605756 3.3213128e-39
0.5441168 -0.3081769 0.75973839 4.7972094e-39
0.55532062 -0.30579141 0.75919986 5.0738019e-39
0.56453514 -0.30460471 0.75670373 5.1660017e-39
0.57219422 -0.30392942 0.7529313 5.1660003e-39
0.5818941 -0.30881959 0.7566067 4.5202511e-39
0.53475463 -0.29510912 0.75557566 3.1365544e-39
0.55670321 -0.29518959 0.75927597 5.1660003e-39
0.56476033 -0.29492259 0.7568351 5.1660003e-39
0.5723291 -0.29460722 0.75391483 5.1660017e-39
0.53652716 -0.28508407 0.75518632 3.2287542e-39
0.54094756 -0.28251299 0.7591725 3.5053453e-39
0.55565643 -0.28457206 0.75926489 5.0738033e-39
0.56483775 -0.28502819 0.75670421 5.1660003e-39
0.57316577 -0.28444955 0.75392538 5.1660003e-39
0.53749543 -0.2746374 0.75430137 3.2287528e-39
0.54251838 -0.27383813 0.75900435 3.6901051e-39
0.55476308 -0.27497187 0.75916547 5.0738019e-39
0.56477004 -0.27505222 0.7567398 5.1660003e-39
0.57384032 -0.2745097 0.7538479 5.1660017e-39
0.52683562 -0.26311535 0.7564519 4.704648e-39
0.53793019 -0.26487464 0.7532534 3.0443545e-39
0.54211217 -0.26432994 0.75843275 3.7823021e-39
0.55492586 -0.26516348 0.75902361 5.0738019e-39
0.56459183 -0.26500872 0.75689602 5.0738047e-39
0.5747667 -0.26472652 0.75354064 5.1660017e-39
0.4939959 -0.25776628 0.75053763 4.797208e-39
0.5387724 -0.25537252 0.75264645 2.8599605e-39
0.54312521 -0.25438875 0.75807428 3.6901037e-39
0.55598783 -0.25541425 0.75900286 5.0738047e-39
0.56476998 -0.25522181 0.75686812 5.0738047e-39
0.57411176 -0.25470296 0.75432134 5.1660003e-39
0.58149254 -0.25377017 0.75108868 5.4425844e-39
0.53964156 -0.24689995 0.75142765 2.8599577e-39
0.54342562 -0.24450298 0.75693548 3.5060684e-39
0.55669266 -0.24488737 0.7591365 4.9816034e-39
0.56435275 -0.24549554 0.75744152 5.1659989e-39
0.57450521 -0.24521762 0.7548058 5.1659989e-39
0.58182794 -0.24474263 0.75242621 5.1660003e-39
0.544734 -0.23482385 0.7562992 3.5053453e-39
0.55616254 -0.23571491 0.7598207 4.9816034e-39
0.56544673 -0.23516905 0.7582764 5.1660003e-39
0.57532722 -0.23495296 0.75556177 5.1660003e-39
0.58226722 -0.23514888 0.75330842 5.1660017e-39
0.54631257 -0.22494672 0.75554842 3.3209512e-39
0.55261844 -0.22346984 0.75975341 4.612451e-39
0.56624955 -0.22593105 0.75913864 5.1660003e-39
0.57459033 -0.22503529 0.75697702 5.1660003e-39
0.58361185 -0.22371972 0.75364685 5.2581959e-39
0.53717804 -0.21714066 0.75017685 2.8599577e-39
0.54735154 -0.21484293 0.7541756 3.0443559e-39
0.55237192 -0.21575281 0.7592206 4.1514574e-39
0.56875539 -0.21567449 0.75962234 1.0973183e-38
0.57496279 -0.21483667 0.75801528 1.1526351e-38
0.58307624 -0.21459766 0.75503391 6.9173389e-39
0.54837972 -0.20494759 0.75383115 2.9521589e-39
0.55167818 -0.20367217 0.75838184 3.4131511e-39
0.57521373 -0.20513646 0.75854403 1.3450454e-38
0.58390015 -0.2050958 0.7557382 1.1523804e-38
0.54892337 -0.19537704 0.7524789 2.8599577e-39
0.55176985 -0.19452114 0.75755167 3.2291129e-39
0.57596415 -0.19543125 0.75851482 1.1049038e-38
0.58486235 -0.19472794 0.75578046 8.0189501e-39
0.5900293 -0.19953285 0.75252444 5.1660017e-39
0.54956561 -0.1884433 0.75043273 2.8599577e-39
0.55276042 -0.18467425 0.75561738 3.1369089e-39
0.57634765 -0.18463999 0.75829452 1.1235233e-38
0.58561677 -0.1849298 0.7550807 1.6404686e-38
0.59379214 -0.18503898 0.75979334 1.3368424e-38
0.55515981 -0.17465885 0.75521648 3.0443545e-39
0.56926703 -0.17169429 0.75961179 1.2078425e-38
0.57446569 -0.17493151 0.75807023 1.3826113e-38
0.58432269 -0.17523696 0.75485253 1.5021764e-38
0.5900631 -0.17484388 0.7524876 1.9730236e-38
0.55695516 -0.16562054 0.75406635 3.1365558e-39
0.56495982 -0.16446613 0.75725389 4.1510973e-39
0.57423347 -0.16467482 0.75737178 4.6116943e-39
0.58216602 -0.16589552 0.75546616 5.9953686e-39
0.54844004 -0.15379824 0.75946939 1.2074431e-38
0.56535184 -0.15832089 0.75182331 3.6901065e-39
0.57411379 -0.15848584 0.75419158 3.7823021e-39
0.58622617 -0.15657839 0.75234598 3.4142287e-39
0.48824072 0.22411922 0.75183964 6.3488461e-39
0.26397792 0.52789086 0.7587629 4.1326169e-39
0.26495555 0.56104302 0.75500077 4.1326169e-39
0.27501789 0.56106377 0.75513637 4.1326169e-39
0.28496441 0.56108427 0.75499743 4.1326169e-39
0.29489678 0.56110489 0.75504291 4.1326169e-39
0.30059361 0.56111664 0.75451189 4.1326169e-39
0.29658544 -0.55888933 0.76372629 1.1164145e-41
0.30034068 -0.55888152 0.76523709 1.1164145e-41
0.54844844 -0.33291912 0.76025856 3.043979e-39
0.55042899 -0.33191746 0.76077735 3.1358117e-39
0.52507961 -0.32197359 0.76430321 2.8599577e-39
0.54899693 -0.32867819 0.76018441 5.9938622e-39
0.55069309 -0.32986969 0.76047194 3.0443587e-39
0.56023294 -0.310509 0.76344103 5.1660003e-39
0.52858931 -0.30498898 0.76343858 3.0443559e-39
0.5394218 -0.30220205 0.76012826 4.7972066e-39
0.54522759 -0.30361208 0.76048356 4.7972094e-39
0.55142075 -0.30220309 0.76038259 5.0738019e-39
0.53931445 -0.29553553 0.76025504 4.5202511e-39
0.54437155 -0.29488412 0.7610088 4.7050109e-39
0.55156916 -0.29484922 0.76067364 5.0738047e-39
0.54496813 -0.28518182 0.76080012 4.7046494e-39
0.551328 -0.28675395 0.76030183 5.0738019e-39
0.54576015 -0.27539426 0.7604419 4.704648e-39
0.54694271 -0.26536044 0.76044726 4.704648e-39
0.5510565 -0.26042801 0.76005161 5.1660003e-39
0.58593053 -0.26753908 0.76039505 5.0738047e-39
0.50209367 -0.25539196 0.76135665 2.9521589e-39
0.54825562 -0.25609273 0.7603699 4.4280513e-39
0.55102783 -0.25440758 0.76040727 4.9816062e-39
0.54909992 -0.24660909 0.76006484 4.7046466e-39
0.55204266 -0.24476697 0.76041627 4.797208e-39
0.55436832 -0.23486106 0.76034313 4.797208e-39
0.55651683 -0.22587557 0.76019406 4.797208e-39
0.56164008 -0.22439148 0.76032257 4.8894078e-39
0.5567826 -0.21356545 0.76046503 4.796845e-39
0.56336492 -0.2149564 0.76057577 7.0095261e-39
0.55619115 -0.20506084 0.76119524 4.4280527e-39
0.56521738 -0.20515372 0.76074159 1.5120487e-38
0.55649382 -0.19498275 0.76181632 4.3354927e-39
0.56477493 -0.19519554 0.76132631 1.4198542e-38
0.57085729 -0.19376987 0.76008701 1.3454786e-38
0.55728215 -0.18558905 0.76151294 3.9666976e-39
0.56436986 -0.18494985 0.76169914 1.5396712e-38
0.57072204 -0.18617456 0.76023787 1.5116472e-38
0.55884302 -0.17600156 0.76098913 3.598264e-39
0.56456488 -0.1751225 0.76091582 1.4013427e-38
0.56378281 -0.16917151 0.76014858 4.7968394e-39
0.54167002 -0.144059 0.76087546 3.231987e-39
0.23659939 0.56098419 0.76432675 4.1326169e-39
0.2449671 0.56100148 0.76498592 4.1326169e-39
0.25489703 0.56102198 0.76504523 4.1326169e-39
0.26483658 0.56104261 0.76501107 4.1326169e-39
0.2748915 0.56106329 0.7650975 4.1326169e-39
0.28489289 0.56108397 0.76499397 4.1326169e-39
0.29498437 0.56110495 0.76500821 4.1326169e-39
0.30053109 0.5611164 0.76482075 4.1326169e-39
0.30021569 -0.5588817 0.7705071 1.1164145e-41
0.32956147 -0.54086447 0.7730763 1.1164145e-41
0.56706554 -0.3235358 0.77486014 2.3986096e-39
0.57755935 -0.32370868 0.77474606 4.9816034e-39
0.49367628 -0.31681901 0.77370006 5.0737991e-39
0.5595597 -0.29098177 0.77474993 3.6893456e-39
0.56111085 -0.29977003 0.77002996 4.7972066e-39
0.55436432 -0.22624646 0.77219379 5.1660003e-39
0.52122051 -0.20213762 0.77984035 4.1510945e-39
0.29487708 0.5594303 0.77665865 4.1326169e-39
0.20641762 0.56099933 0.7766462 4.1326169e-39
0.23933041 0.5609898 0.77063131 4.1326169e-39
0.24582942 0.56100309 0.77414632 4.1326169e-39
0.25496274 0.56102192 0.77501571 4.1326169e-39
0.26501936 0.5610429 0.77507871 4.1326169e-39
0.27501142 0.56106341 0.77504486 4.1326169e-39
0.28501144 0.56108415 0.77496028 4.1326169e-39
0.29489836 0.5611046 0.7751075 4.1326169e-39
0.30059978 0.56111646 0.77517217 4.1326169e-39
0.27045003 0.63599539 0.77150893 1.4234566e-38
0.48187912 -0.20236409 0.78106517 2.952519e-39
0.24909663 0.56100982 0.78097206 4.1326169e-39
0.25566617 0.56102335 0.78434181 4.1326169e-39
0.2649143 0.56104249 0.78504473 4.1326169e-39
0.27497751 0.56106341 0.78492248 4.1326169e-39
0.2849597 0.56108391 0.78498048 4.1326169e-39
0.29497874 0.56110477 0.78507829 4.1326169e-39
0.30056897 0.56111622 0.78563905 4.1326169e-39
0.24728777 0.57307279 0.7845791 4.1326169e-39
0.25944164 0.49125031 0.7940771 1.1938668e-38
0.27339906 0.53444391 0.79219902 1.166316e-38
0.25762409 0.561984 0.79220569 4.5917958e-39
0.2655113 0.5610435 0.79441863 4.1326169e-39
