# .PCD v0.7 - Point Cloud Data file format
VERSION 0.7
FIELDS x y z rgb
SIZE 4 4 4 4
TYPE F F F F
COUNT 1 1 1 1
WIDTH 1018
HEIGHT 1
VIEWPOINT 0 0 0 1 0 0 0
POINTS 1018
DATA ascii
0.42521548 -0.17490944 0.60999888 1.0879084e-38
0.43488231 -0.17512266 0.60978013 1.0879084e-38
0.44493565 -0.17503095 0.60999918 1.0879084e-38
0.45507929 -0.17509414 0.60999924 1.0879084e-38
0.46536165 -0.17489818 0.6099993 1.0879084e-38
0.47499657 -0.17514938 0.60999942 1.0879084e-38
0.48464942 -0.17498998 0.60999936 1.0879084e-38
0.49537 -0.17505184 0.60999966 1.0879084e-38
0.50540757 -0.17496528 0.60999978 1.0879084e-38
0.51470512 -0.17486127 0.60999984 1.0879084e-38
0.52512753 -0.17504519 0.61000001 1.0879084e-38
0.53567213 -0.17495637 0.6099999 1.0879084e-38
0.54258037 -0.17424756 0.6099999 1.0879084e-38
0.57283497 -0.17460603 0.60511208 1.0879084e-38
0.68771219 -0.17002492 0.60373896 1.0879084e-38
0.32999837 -0.16499954 0.6038999 0
0.33500671 -0.16496187 0.60999852 1.0879084e-38
0.34533936 -0.1649003 0.60999864 1.0879084e-38
0.35512215 -0.1650407 0.6099987 1.0879084e-38
0.36513534 -0.16500185 0.60993338 1.0879084e-38
0.37527335 -0.1649207 0.60999876 1.0879084e-38
0.38496765 -0.16497356 0.60999876 1.0879084e-38
0.39477929 -0.1649563 0.60999876 1.0879084e-38
0.40478352 -0.16506164 0.60999882 1.0879084e-38
0.41503897 -0.16510166 0.60999882 1.0879084e-38
0.4252952 -0.16490315 0.60999888 1.0879084e-38
0.43503028 -0.1650025 0.60999906 1.0879084e-38
0.44487083 -0.16497536 0.60999918 1.0879084e-38
0.45494822 -0.16507711 0.60999924 1.0879084e-38
0.4651801 -0.16505076 0.6099993 1.0879084e-38
0.4746727 -0.16496773 0.60999942 1.0879084e-38
0.48446184 -0.16497989 0.60999936 1.0879084e-38
0.49525011 -0.16508518 0.60999948 1.0879084e-38
0.50534827 -0.16499771 0.60999984 1.0879084e-38
0.51470518 -0.16497761 0.60999978 1.0879084e-38
0.52507609 -0.16496748 0.60999995 1.0879084e-38
0.53567237 -0.1649024 0.60999984 1.0879084e-38
0.54386652 -0.16522786 0.60999978 1.0879084e-38
0.58101696 -0.16198178 0.6095385 1.0879084e-38
0.32999837 -0.15486163 0.60405171 0
0.33507666 -0.1549494 0.60999852 1.0879084e-38
0.34531158 -0.15493691 0.60999864 1.0879084e-38
0.35509408 -0.15498459 0.6099987 1.0879084e-38
0.36514723 -0.15513667 0.6099987 1.0879084e-38
0.37533444 -0.15498249 0.60999876 1.0879084e-38
0.38491297 -0.15496154 0.60999876 1.0879084e-38
0.39474735 -0.15494008 0.60999876 1.0879084e-38
0.40474576 -0.15498975 0.60999882 1.0879084e-38
0.41493836 -0.15500447 0.60999882 1.0879084e-38
0.42537636 -0.15489462 0.60999888 1.0879084e-38
0.435094 -0.1550338 0.60999894 1.0879084e-38
0.44499975 -0.15504806 0.60999918 1.0879084e-38
0.45507926 -0.15506257 0.60999924 1.0879084e-38
0.46533784 -0.15507734 0.6099993 1.0879084e-38
0.47494522 -0.15493153 0.60999942 1.0879084e-38
0.48455635 -0.15497364 0.60999936 1.0879084e-38
0.49534607 -0.15498798 0.6099996 1.0879084e-38
0.5052889 -0.15503162 0.60999978 1.0879084e-38
0.51452976 -0.15493751 0.60999984 1.0879084e-38
0.52510202 -0.15502697 0.6099999 1.0879084e-38
0.53567237 -0.15501331 0.60999984 1.0879084e-38
0.54432875 -0.15526317 0.60999984 1.0879084e-38
0.65144658 -0.15435962 0.6089558 1.0879084e-38
0.32999834 -0.14495912 0.60405147 0
0.33501765 -0.14502037 0.60999852 1.0786889e-38
0.34528396 -0.14497435 0.60999864 1.0879084e-38
0.3551507 -0.14503077 0.6099987 1.0879084e-38
0.3650609 -0.14508608 0.6099987 1.0879084e-38
0.3753345 -0.14493944 0.60999876 1.0879084e-38
0.38487622 -0.1450714 0.60999876 1.0879084e-38
0.39471567 -0.14492472 0.60999876 1.0879084e-38
0.40460926 -0.14504288 0.60999882 1.0879084e-38
0.41483763 -0.14491007 0.60999882 1.0879084e-38
0.42511007 -0.14501317 0.60999888 1.0879084e-38
0.43486682 -0.14506693 0.609999 1.0879084e-38
0.44476861 -0.14499439 0.60999918 1.0879084e-38
0.45494822 -0.1450478 0.60999924 1.0879084e-38
0.4652043 -0.14497381 0.6099993 1.0879084e-38
0.47488663 -0.1450588 0.60999942 1.0879084e-38
0.48464936 -0.14496513 0.60999936 1.0879084e-38
0.49541932 -0.14502162 0.60999942 1.0879084e-38
0.50552696 -0.14505512 0.60999978 1.0879084e-38
0.51470524 -0.14488775 0.60999978 1.0879084e-38
0.52502471 -0.14508693 0.61000001 1.0879084e-38
0.53560984 -0.14496186 0.6099999 1.0879084e-38
0.54445702 -0.14523177 0.60999984 1.0879084e-38
0.32999837 -0.13505691 0.60420269 0
0.33493605 -0.13509254 0.60999852 1.0786889e-38
0.3452563 -0.13501255 0.60999864 1.0786889e-38
0.35506588 -0.13507508 0.6099987 1.0786889e-38
0.36521301 -0.13513625 0.6098963 1.0879084e-38
0.37524256 -0.13499871 0.60999876 1.0879084e-38
0.38496763 -0.13505891 0.60999876 1.0879084e-38
0.39477852 -0.1350147 0.60999876 1.0879084e-38
0.40476459 -0.13497072 0.60999882 1.0879084e-38
0.41493776 -0.1349249 0.60999882 1.0879084e-38
0.42539358 -0.13500232 0.60999888 1.0879084e-38
0.43519416 -0.13496843 0.60999906 1.0879084e-38
0.44512743 -0.13493468 0.60999918 1.0879084e-38
0.45507929 -0.13503101 0.60999924 1.0879084e-38
0.46527144 -0.13499911 0.6099993 1.0879084e-38
0.4746677 -0.13503872 0.60999942 1.0879084e-38
0.48446172 -0.13495977 0.60999936 1.0879084e-38
0.49534541 -0.13505626 0.60999954 1.0879084e-38
0.50546724 -0.13508715 0.60999978 1.0879084e-38
0.5147053 -0.13516614 0.60999978 1.0879084e-38
0.52497351 -0.13501219 0.60999995 1.0879084e-38
0.53567237 -0.13490602 0.60999984 1.0879084e-38
0.54445714 -0.1352725 0.60999984 1.0879084e-38
0.56210405 -0.1303816 0.60458153 1.0879084e-38
0.67517531 -0.13574809 0.60617715 1.0879084e-38
0.32999837 -0.12492358 0.60389996 0
0.33508798 -0.12499683 0.60999846 1.0786889e-38
0.34542298 -0.12505007 0.60999864 1.0786889e-38
0.35523576 -0.12501927 0.60999864 1.0786889e-38
0.36514714 -0.12509008 0.60999876 1.0786889e-38
0.37533453 -0.12505908 0.60999876 1.0879084e-38
0.38496763 -0.12492607 0.60999876 1.0879084e-38
0.394779 -0.12499907 0.60999876 1.0879084e-38
0.40491948 -0.12489437 0.60999882 1.0879084e-38
0.41503918 -0.12493694 0.60999882 1.0879084e-38
0.42535791 -0.12499338 0.60999888 1.0879084e-38
0.43496802 -0.12500367 0.60999894 1.0879084e-38
0.44474319 -0.12501456 0.60999918 1.0879084e-38
0.45484424 -0.12489313 0.60999924 1.0879084e-38
0.46533692 -0.12502286 0.6099993 1.0879084e-38
0.47499651 -0.12499242 0.60999942 1.0879084e-38
0.48443562 -0.12508622 0.60999936 1.0879084e-38
0.49515498 -0.12496307 0.60999966 1.0879084e-38
0.50534993 -0.12496312 0.60999978 1.0879084e-38
0.51482642 -0.12527569 0.60999984 1.0879084e-38
0.5251019 -0.12506995 0.6099999 1.0879084e-38
0.53554744 -0.12485901 0.6099999 1.0879084e-38
0.5444963 -0.12510195 0.60999984 1.0879084e-38
0.32999837 -0.11502138 0.60405141 0
0.33506563 -0.11498305 0.60999852 1.0786889e-38
0.345395 -0.11508617 0.60999864 1.0786889e-38
0.3551507 -0.11506362 0.6099987 1.0786889e-38
0.36514714 -0.11514197 0.6099987 1.0786889e-38
0.37533444 -0.11501605 0.60999876 1.0786889e-38
0.38505867 -0.11491025 0.60999876 1.0786889e-38
0.39484254 -0.11487806 0.60999876 1.0879084e-38
0.40478352 -0.11494807 0.60999882 1.0879084e-38
0.41490486 -0.11495017 0.60999882 1.0879084e-38
0.42513466 -0.11511774 0.60999888 1.0879084e-38
0.43493065 -0.1149116 0.609999 1.0879084e-38
0.44510165 -0.11494905 0.60999918 1.0879084e-38
0.45519227 -0.11486778 0.60999924 1.0879084e-38
0.46508971 -0.11505644 0.6099993 1.0879084e-38
0.47467262 -0.11482457 0.60999942 1.0879084e-38
0.48476136 -0.11506884 0.60999936 1.0879084e-38
0.49546862 -0.1149893 0.60999948 1.0879084e-38
0.50528902 -0.11483831 0.60999978 1.0879084e-38
0.51476353 -0.11507004 0.60999984 1.0879084e-38
0.525231 -0.11512456 0.60999995 1.0879084e-38
0.53567237 -0.11479919 0.60999984 1.0879084e-38
0.54445708 -0.11493865 0.60999984 1.0879084e-38
0.32999837 -0.10511892 0.60405183 0
0.33502969 -0.10505626 0.60999852 1.0786889e-38
0.34536636 -0.10502353 0.60999864 1.0786889e-38
0.35520718 -0.10510658 0.6099987 1.0786889e-38
0.36523384 -0.10509001 0.6099987 1.0786889e-38
0.37533444 -0.10497297 0.60999876 1.0786889e-38
0.38496757 -0.10490085 0.60999876 1.0786889e-38
0.39481175 -0.10496639 0.60999876 1.0786889e-38
0.40468717 -0.1050035 0.60999882 1.0879084e-38
0.41476998 -0.10496707 0.60999882 1.0879084e-38
0.4253937 -0.104975 0.60999882 1.0879084e-38
0.43520311 -0.10493211 0.60999894 1.0879084e-38
0.44476023 -0.10503402 0.60999918 1.0879084e-38
0.45484418 -0.10486565 0.60999924 1.0879084e-38
0.46546996 -0.10506773 0.6099993 1.0879084e-38
0.47483221 -0.10494202 0.60999954 1.0879084e-38
0.48435026 -0.10481304 0.60999936 1.0879084e-38
0.49544105 -0.10502292 0.60999972 1.0879084e-38
0.50540775 -0.10502343 0.60999972 1.0879084e-38
0.5146448 -0.10486999 0.60999984 1.0879084e-38
0.52517909 -0.10504769 0.60999995 1.0879084e-38
0.53567243 -0.10491011 0.60999984 1.0879084e-38
0.54445708 -0.10497939 0.60999984 1.0879084e-38
0.75151908 -0.10176558 0.60345721 1.0879084e-38
0.32999837 -0.094991826 0.60420269 0
0.33485717 -0.094960481 0.60999846 1.0786889e-38
0.34531161 -0.094962552 0.6099987 1.0786889e-38
0.35517868 -0.095050439 0.6099987 1.0786889e-38
0.36514714 -0.095041871 0.60999876 1.0786889e-38
0.3753345 -0.094929889 0.6099987 1.0786889e-38
0.3850224 -0.094885439 0.60999876 1.0786889e-38
0.3947475 -0.09505678 0.60999876 1.0786889e-38
0.4046697 -0.09505707 0.60999882 1.0786889e-38
0.41510597 -0.094971403 0.60999882 1.0786889e-38
0.42535788 -0.094966978 0.60999888 1.0879084e-38
0.43486673 -0.095105603 0.609999 1.0879084e-38
0.44503668 -0.094966523 0.60999918 1.0879084e-38
0.45501843 -0.095012061 0.60980445 1.0879084e-38
0.4650721 -0.094981968 0.6099993 1.0879084e-38
0.47499135 -0.095055439 0.60999942 1.0879084e-38
0.48455593 -0.094929688 0.60999942 1.0879084e-38
0.49524999 -0.094932973 0.60999966 1.0879084e-38
0.50552696 -0.095205583 0.60999978 1.0879084e-38
0.51458466 -0.094830208 0.60999984 1.0879084e-38
0.52512753 -0.094972104 0.60999995 1.0879084e-38
0.53567237 -0.095021002 0.60999984 1.0879084e-38
0.54445708 -0.095020123 0.60999984 1.0879084e-38
0.58882707 -0.09463454 0.60435539 1.0879084e-38
0.60552186 -0.097935073 0.6016435 1.0879084e-38
0.32999837 -0.085084997 0.60405147 0
0.33503002 -0.08503253 0.60999858 1.0786889e-38
0.34520355 -0.084905647 0.60999864 1.0786889e-38
0.35515049 -0.084995128 0.6099987 1.0786889e-38
0.36514711 -0.085093759 0.6099987 1.0786889e-38
0.37533453 -0.084886849 0.60999876 1.0786889e-38
0.38498598 -0.0849953 0.60999876 1.0786889e-38
0.39461687 -0.085151821 0.60999876 1.0786889e-38
0.4047645 -0.084857993 0.60999882 1.0786889e-38
0.41497228 -0.084987015 0.60999882 1.0786889e-38
0.42513475 -0.085097298 0.60999882 1.0786889e-38
0.43519416 -0.084992737 0.60999894 1.0879084e-38
0.44482303 -0.085050322 0.60999924 1.0879084e-38
0.45491034 -0.084962934 0.60999924 1.0879084e-38
0.46545276 -0.084987015 0.6099993 1.0879084e-38
0.47466782 -0.084895805 0.60999942 1.0879084e-38
0.48474357 -0.08517395 0.60999936 1.0879084e-38
0.49522343 -0.084970556 0.60999948 1.0879084e-38
0.50546527 -0.085079454 0.60999978 1.0879084e-38
0.51470536 -0.084937796 0.60999978 1.0879084e-38
0.52507603 -0.084897742 0.60999995 1.0879084e-38
0.53526855 -0.085990757 0.60999972 1.0879084e-38
0.54383171 -0.08772321 0.61000001 1.0879084e-38
0.60249048 -0.086002156 0.60983801 1.0879084e-38
0.32999837 -0.075174086 0.6038999 0
0.33520311 -0.075099491 0.60999846 1.0786889e-38
0.34533948 -0.074937887 0.60999864 1.0786889e-38
0.35512212 -0.0749406 0.6099987 1.0786889e-38
0.36514717 -0.075145625 0.6099987 1.0786889e-38
0.37533459 -0.074843802 0.6099987 1.0786889e-38
0.38494942 -0.075106189 0.60999876 1.0786889e-38
0.39477906 -0.075130545 0.60999876 1.0786889e-38
0.40491939 -0.074774638 0.60999882 1.0786889e-38
0.41473195 -0.07511802 0.60999882 1.0786889e-38
0.42539364 -0.074947648 0.60999882 1.0786889e-38
0.43485853 -0.075172089 0.60999894 1.0786889e-38
0.44493526 -0.074988842 0.60999918 1.0786889e-38
0.45512843 -0.074933805 0.60999924 1.0879084e-38
0.46509829 -0.074905314 0.6099993 1.0879084e-38
0.47483212 -0.075165503 0.60999948 1.0879084e-38
0.48437744 -0.074925721 0.6099993 1.0879084e-38
0.49546856 -0.075122811 0.60999942 1.0879084e-38
0.50523496 -0.074810617 0.60999978 1.0879084e-38
0.51470518 -0.075216167 0.60999978 1.0879084e-38
0.52401656 -0.075482234 0.60999978 1.0879084e-38
0.53180057 -0.079046264 0.6099999 1.0879084e-38
0.32999837 -0.065048404 0.60405165 0
0.33499497 -0.064920753 0.60999846 1.0786889e-38
0.34533954 -0.065174364 0.6099987 1.0786889e-38
0.35500738 -0.064867921 0.60994828 1.0694693e-38
0.36514714 -0.06519749 0.6099987 1.0786889e-38
0.37533456 -0.064800724 0.60999876 1.0786889e-38
0.38491303 -0.065218084 0.60999876 1.0786889e-38
0.39477912 -0.064906254 0.60999876 1.0786889e-38
0.40470511 -0.065086722 0.60999882 1.0786889e-38
0.41493809 -0.065015689 0.60999882 1.0786889e-38
0.42529607 -0.065070793 0.60999888 1.0786889e-38
0.43503052 -0.065066323 0.60999906 1.0786889e-38
0.44504809 -0.064924397 0.60999924 1.0786889e-38
0.45491022 -0.064934321 0.60999924 1.0786889e-38
0.46527112 -0.065049566 0.60999936 1.0879084e-38
0.47483215 -0.064978786 0.60999942 1.0879084e-38
0.48444021 -0.065044388 0.60985303 1.0879084e-38
0.49541521 -0.065026492 0.60999972 1.0879084e-38
0.50540793 -0.064826146 0.60999972 1.0879084e-38
0.51435798 -0.065860614 0.60999972 1.0879084e-38
0.5208205 -0.068376794 0.60999978 1.0879084e-38
0.80256295 -0.062529258 0.60282421 1.0879084e-38
0.32999843 -0.054926738 0.60420269 0
0.33488938 -0.054828439 0.60999852 1.0786889e-38
0.34547585 -0.055201396 0.60999864 1.0786889e-38
0.35515061 -0.054727893 0.6099987 1.0786889e-38
0.36514717 -0.055249374 0.6099987 1.0786889e-38
0.37533459 -0.054757673 0.6099987 1.0786889e-38
0.38487634 -0.055331003 0.60999876 1.0786889e-38
0.39487398 -0.054779548 0.60999876 1.0786889e-38
0.40466979 -0.055265095 0.60999882 1.0786889e-38
0.41510591 -0.054804295 0.60999882 1.0786889e-38
0.42519742 -0.055196729 0.60999888 1.0786889e-38
0.43520299 -0.05495603 0.60999906 1.0786889e-38
0.44483349 -0.05501385 0.60999918 1.0786889e-38
0.45501375 -0.055040054 0.60999924 1.0786889e-38
0.465271 -0.054945599 0.60999924 1.0786889e-38
0.47483215 -0.054792088 0.60999954 1.0879084e-38
0.48474348 -0.055146724 0.60999936 1.0879084e-38
0.49515495 -0.054816436 0.60999948 1.0879084e-38
0.50528055 -0.055309683 0.60999972 1.0879084e-38
0.51142973 -0.058391917 0.60999972 1.0879084e-38
0.3299984 -0.045014482 0.60405141 0
0.33503002 -0.044981629 0.60999858 1.0786889e-38
0.34536636 -0.045045961 0.60999864 1.0786889e-38
0.35515058 -0.04487294 0.6099987 1.0786889e-38
0.36514714 -0.045301251 0.6099987 1.0786889e-38
0.3753345 -0.044714607 0.60999876 1.0786889e-38
0.38496757 -0.045310944 0.60999876 1.0786889e-38
0.39487636 -0.044866338 0.60999876 1.0786889e-38
0.40476453 -0.045062616 0.60999882 1.0786889e-38
0.41475895 -0.045160215 0.60999882 1.0786889e-38
0.42529574 -0.044805039 0.60999888 1.0786889e-38
0.43486682 -0.045144293 0.60999906 1.0786889e-38
0.44504321 -0.045089386 0.60995287 1.0786889e-38
0.45501381 -0.045024846 0.60999918 1.0786889e-38
0.46527106 -0.044841632 0.60999936 1.0786889e-38
0.47494537 -0.045217991 0.60999942 1.0786889e-38
0.48437738 -0.044907738 0.6099993 1.0786889e-38
0.49534565 -0.044968829 0.6099996 1.0879084e-38
0.50356203 -0.046043377 0.60999966 1.0879084e-38
0.84542245 -0.049337838 0.60186112 1.0879084e-38
0.32999843 -0.035342291 0.60405129 0
0.33511376 -0.035221446 0.60999852 1.0786889e-38
0.34517926 -0.034801371 0.60999864 1.0786889e-38
0.35515064 -0.035017982 0.6099987 1.0786889e-38
0.36520484 -0.03524632 0.6099987 1.0786889e-38
0.37533453 -0.034671541 0.6099987 1.0786889e-38
0.38496757 -0.035178125 0.60999876 1.0786889e-38
0.39468002 -0.035179511 0.60999876 1.0786889e-38
0.4047645 -0.034745283 0.60999876 1.0786889e-38
0.41493827 -0.035266735 0.60999882 1.0786889e-38
0.42529571 -0.035046998 0.60999888 1.0786889e-38
0.4350307 -0.034782391 0.60999894 1.0786889e-38
0.44483349 -0.035159625 0.60999918 1.0786889e-38
0.45501375 -0.035009637 0.6099993 1.0786889e-38
0.46544328 -0.034978509 0.6099993 1.0786889e-38
0.47472885 -0.035058551 0.60999936 1.0786889e-38
0.48455584 -0.034884706 0.60999942 1.0786889e-38
0.49546877 -0.035256334 0.60999966 1.0786889e-38
0.5043537 -0.033344578 0.60999966 1.0879084e-38
0.83289313 -0.039356634 0.60187048 1.0879084e-38
0.32999846 -0.024979221 0.60405129 0
0.33508545 -0.025036946 0.6099984 1.0786889e-38
0.34533954 -0.024725452 0.60999864 1.0786889e-38
0.35515061 -0.025163017 0.6099987 1.0786889e-38
0.36514717 -0.025201438 0.6099987 1.0786889e-38
0.37530208 -0.024725312 0.60996246 1.0786889e-38
0.38496757 -0.025045287 0.60999876 1.0786889e-38
0.39468384 -0.025374012 0.60999876 1.0786889e-38
0.40494341 -0.024774874 0.60999882 1.0786889e-38
0.41493812 -0.024854599 0.60999882 1.0786889e-38
0.42529577 -0.02528896 0.60999888 1.0786889e-38
0.43503064 -0.024940111 0.609999 1.0786889e-38
0.44512743 -0.024944691 0.60999918 1.0786889e-38
0.4550139 -0.024994429 0.60999918 1.0786889e-38
0.46508959 -0.024911959 0.60999924 1.0786889e-38
0.47483206 -0.025015553 0.60999948 1.0786889e-38
0.48467657 -0.025258705 0.60999936 1.0786889e-38
0.49523488 -0.02491615 0.60999942 1.0786889e-38
0.50540787 -0.024628844 0.60999972 1.0786889e-38
0.51376843 -0.023735182 0.60999972 1.0786889e-38
0.80770767 -0.025010642 0.60297322 1.0879084e-38
0.82954085 -0.021494318 0.60460299 1.0879084e-38
0.31606108 -0.018329775 0.60803753 1.0786889e-38
0.32999843 -0.014616154 0.60405135 0
0.33488914 -0.014782985 0.60999852 1.0786889e-38
0.34533948 -0.014961923 0.60999864 1.0786889e-38
0.35515061 -0.015308055 0.6099987 1.0786889e-38
0.36517593 -0.015148632 0.6099987 1.0786889e-38
0.37533456 -0.01458542 0.6099987 1.0786889e-38
0.38496763 -0.014912452 0.60999876 1.0786889e-38
0.39477897 -0.015245534 0.60999876 1.0786889e-38
0.40458563 -0.01523761 0.60999882 1.0786889e-38
0.41514888 -0.014845145 0.60999882 1.0786889e-38
0.42529574 -0.014780297 0.60999882 1.0786889e-38
0.43503067 -0.015097827 0.60999906 1.0786889e-38
0.44474319 -0.015061378 0.60999918 1.0786889e-38
0.45501375 -0.014979218 0.60999924 1.0786889e-38
0.46527106 -0.015306953 0.60999936 1.0786889e-38
0.47483206 -0.014828846 0.60999936 1.0786889e-38
0.48444691 -0.015013606 0.6099993 1.0786889e-38
0.49534571 -0.014673392 0.60999948 1.0786889e-38
0.50540775 -0.014981497 0.60999972 1.0786889e-38
0.5147053 -0.015266188 0.60999978 1.0786889e-38
0.52286708 -0.014598991 0.60961521 1.0786889e-38
0.32999843 -0.0049439613 0.60405117 0
0.33502984 -0.0049307528 0.60999858 1.0786889e-38
0.34533948 -0.0051983953 0.60999864 1.0786889e-38
0.35515061 -0.0054530962 0.6099987 1.0786889e-38
0.36514705 -0.0050004181 0.6099987 1.0786889e-38
0.37533453 -0.004542361 0.60999876 1.0786889e-38
0.38496757 -0.0047796192 0.60999876 1.0786889e-38
0.394779 -0.005021268 0.60999876 1.0786889e-38
0.40476459 -0.0052672047 0.60999876 1.0786889e-38
0.41473198 -0.0052208537 0.60999882 1.0786889e-38
0.42529571 -0.0050222543 0.60999888 1.0786889e-38
0.43520305 -0.0049799369 0.60999894 1.0786889e-38
0.44493526 -0.004729196 0.60999918 1.0786889e-38
0.45501381 -0.0049640071 0.60999918 1.0786889e-38
0.46527106 -0.0052029812 0.60999924 1.0786889e-38
0.47483215 -0.0046421415 0.60999948 1.0786889e-38
0.48455578 -0.0048622126 0.60999942 1.0786889e-38
0.49534574 -0.0051064156 0.60999954 1.0786889e-38
0.50540775 -0.0053341431 0.60999972 1.0786889e-38
0.5147053 -0.005544567 0.60999978 1.0786889e-38
0.52521801 -0.0050844657 0.61000001 1.0786889e-38
0.53470284 -0.0031128381 0.60999978 1.0786889e-38
0.5415104 -0.00035538338 0.6099999 1.0879084e-38
0.32999843 0.0047282344 0.60405135 0
0.33494863 0.004722008 0.60992432 1.0694693e-38
0.34533963 0.004565136 0.60999864 1.0786889e-38
0.35523567 0.0045135301 0.6099987 1.0786889e-38
0.36498091 0.0053321393 0.6099987 1.0786889e-38
0.37533459 0.0055007003 0.60999876 1.0786889e-38
0.38496771 0.0053532161 0.60999876 1.0786889e-38
0.39477909 0.0052030007 0.60999876 1.0786889e-38
0.4047645 0.0050501218 0.60999882 1.0786889e-38
0.41493818 0.0048943618 0.60999882 1.0786889e-38
0.42529568 0.0047357879 0.60999882 1.0786889e-38
0.43486676 0.004817036 0.60999906 1.0786889e-38
0.44493532 0.0051987963 0.60999924 1.0786889e-38
0.45501381 0.0050512021 0.60999924 1.0786889e-38
0.465271 0.0049009901 0.6099993 1.0786889e-38
0.47483215 0.0047609732 0.60999954 1.0786889e-38
0.48457816 0.0045403228 0.60974562 1.0786889e-38
0.49546865 0.0046101655 0.60999942 1.0786889e-38
0.50540775 0.0051171547 0.60999984 1.0786889e-38
0.51470536 0.0049871877 0.6099999 1.0786889e-38
0.52497345 0.0055066403 0.60999995 1.0786889e-38
0.53567237 0.005518184 0.60999984 1.0786889e-38
0.54458654 0.0060867919 0.60999984 1.0786889e-38
0.75261253 0.0099541778 0.60325742 1.0879084e-38
0.3299984 0.0150913 0.60405117 0
0.33502984 0.015094688 0.60999835 1.0786889e-38
0.34533936 0.015026061 0.60999858 1.0786889e-38
0.35507321 0.015051219 0.60999858 1.0786889e-38
0.36514705 0.015604793 0.6099987 1.0786889e-38
0.37533453 0.015543762 0.60999876 1.0786889e-38
0.38496757 0.01548605 0.60999876 1.0786889e-38
0.39477897 0.015427271 0.60999876 1.0786889e-38
0.40476444 0.015367448 0.60999882 1.0786889e-38
0.414938 0.015306497 0.60999882 1.0786889e-38
0.42529574 0.015244449 0.60999882 1.0786889e-38
0.43503067 0.015186125 0.609999 1.0786889e-38
0.44493529 0.015126789 0.60999918 1.0786889e-38
0.45510146 0.015026813 0.60982931 1.0786889e-38
0.46527094 0.01500496 0.60999918 1.0786889e-38
0.47483215 0.014947682 0.60999942 1.0786889e-38
0.48455569 0.014889427 0.6099993 1.0786889e-38
0.49523488 0.014942563 0.60999954 1.0786889e-38
0.50540787 0.015568454 0.60999972 1.0786889e-38
0.5147053 0.015518943 0.60999978 1.0786889e-38
0.52510202 0.015463578 0.6099999 1.0786889e-38
0.53567237 0.015407285 0.60999984 1.0786889e-38
0.54516166 0.015416269 0.60999984 1.0786889e-38
0.55336595 0.017820673 0.6099999 1.0786889e-38
0.32999843 0.025454365 0.60405129 0
0.33508375 0.025521772 0.60984015 1.0510302e-38
0.34533948 0.025486987 0.60999864 1.0786889e-38
0.35515064 0.025519643 0.60999864 1.0786889e-38
0.36514723 0.025552917 0.6099987 1.0786889e-38
0.37533468 0.025586825 0.60999876 1.0786889e-38
0.38496757 0.025618885 0.60999876 1.0786889e-38
0.39467314 0.025039343 0.60999876 1.0786889e-38
0.40476453 0.024947824 0.60999882 1.0786889e-38
0.4149383 0.024974911 0.60999882 1.0786889e-38
0.42529565 0.025002489 0.60999888 1.0786889e-38
0.43503064 0.025028411 0.60999906 1.0786889e-38
0.4448579 0.025096254 0.6099478 1.0786889e-38
0.45501369 0.025081621 0.60999924 1.0786889e-38
0.46527115 0.025108928 0.60999936 1.0786889e-38
0.47483203 0.02513439 0.60999948 1.0786889e-38
0.48455599 0.025160279 0.60999942 1.0786889e-38
0.49534586 0.025189009 0.60999942 1.0786889e-38
0.50540793 0.025215805 0.60999972 1.0786889e-38
0.5147053 0.025240557 0.60999978 1.0786889e-38
0.52510208 0.025268244 0.6099999 1.0786889e-38
0.53567237 0.025296388 0.60999984 1.0786889e-38
0.54544348 0.025322404 0.6099999 1.0786889e-38
0.55336595 0.021164151 0.6099999 1.0786889e-38
0.32999843 0.035126563 0.60405117 0
0.3350299 0.035120126 0.60999858 1.0786889e-38
0.34533945 0.035250526 0.60999864 1.0786889e-38
0.35515058 0.035374604 0.60999864 1.0786889e-38
0.36514723 0.035501033 0.6099987 1.0786889e-38
0.37524247 0.035538677 0.60999876 1.0786889e-38
0.38496763 0.035027947 0.60999876 1.0786889e-38
0.39487395 0.034507181 0.60999876 1.0786889e-38
0.4047645 0.034528203 0.60999876 1.0786889e-38
0.41493806 0.034643322 0.60999882 1.0786889e-38
0.42529577 0.034760535 0.60999882 1.0786889e-38
0.43503061 0.034870695 0.609999 1.0786889e-38
0.44493535 0.034982774 0.60999918 1.0786889e-38
0.45501381 0.035096828 0.60999918 1.0786889e-38
0.46527115 0.035212897 0.60999918 1.0786889e-38
0.4746677 0.034877814 0.60999942 1.0786889e-38
0.48455584 0.034641072 0.60999942 1.0786889e-38
0.49534586 0.034755982 0.60999942 1.0786889e-38
0.50540787 0.034863152 0.60999972 1.0786889e-38
0.51470524 0.034962177 0.60999978 1.0786889e-38
0.52510196 0.035072908 0.6099999 1.0786889e-38
0.53567231 0.03518549 0.60999984 1.0786889e-38
0.54530734 0.035431769 0.6099999 1.0786889e-38
0.81209606 0.038238801 0.60777861 1.0879084e-38
0.8540746 0.033741444 0.60161859 1.0786889e-38
0.32999843 0.044798758 0.60405123 0
0.33502999 0.044787582 0.60999858 1.0786889e-38
0.34533948 0.045014054 0.60999864 1.0786889e-38
0.35515049 0.045229573 0.6099987 1.0786889e-38
0.36514717 0.04544916 0.6099987 1.0786889e-38
0.37524092 0.045272786 0.60999876 1.0786889e-38
0.38496771 0.044437021 0.60999876 1.0786889e-38
0.394779 0.044639464 0.60999876 1.0786889e-38
0.40476453 0.044845529 0.60999882 1.0786889e-38
0.41493821 0.045055456 0.60999882 1.0786889e-38
0.42529574 0.045269195 0.60999882 1.0786889e-38
0.43484175 0.045115992 0.60999894 1.0786889e-38
0.44493538 0.044910774 0.60999924 1.0786889e-38
0.45501375 0.04511204 0.60999924 1.0786889e-38
0.46527106 0.045316871 0.60999936 1.0786889e-38
0.47499141 0.045011591 0.60999948 1.0786889e-38
0.48455575 0.044911921 0.6099993 1.0786889e-38
0.49523497 0.045000959 0.60999942 1.0786889e-38
0.50540781 0.044510506 0.60999966 1.0786889e-38
0.51470536 0.044683799 0.60999978 1.0786889e-38
0.52510202 0.044877574 0.6099999 1.0786889e-38
0.53567231 0.045074582 0.60999984 1.0786889e-38
0.54544342 0.045256715 0.60999984 1.0786889e-38
0.55336595 0.042896762 0.6099999 1.0786889e-38
0.57993931 0.045680806 0.60052276 1.0786889e-38
0.62956017 0.044369519 0.60540903 1.0786889e-38
0.32999843 0.054946613 0.60419637 0
0.33484828 0.054816667 0.60999846 1.0786889e-38
0.34533948 0.054777574 0.60999864 1.0786889e-38
0.35515058 0.055084534 0.6099987 1.0786889e-38
0.36514714 0.055397283 0.6099987 1.0786889e-38
0.37533471 0.054996938 0.60999876 1.0786889e-38
0.38496765 0.054569829 0.60999876 1.0786889e-38
0.39477906 0.054863729 0.60999876 1.0786889e-38
0.40476459 0.055162851 0.60999876 1.0786889e-38
0.41476989 0.055272005 0.60999882 1.0786889e-38
0.42529571 0.055027235 0.60999888 1.0786889e-38
0.4352195 0.054909345 0.609999 1.0786889e-38
0.44493526 0.054838769 0.60999918 1.0786889e-38
0.4550139 0.055127244 0.60999918 1.0786889e-38
0.46508971 0.054924037 0.6099993 1.0786889e-38
0.47483203 0.054910932 0.60999948 1.0786889e-38
0.48455584 0.055182774 0.60999936 1.0786889e-38
0.49546865 0.055336464 0.60999954 1.0786889e-38
0.50540775 0.054961793 0.60999984 1.0786889e-38
0.51458448 0.054584578 0.60999984 1.0786889e-38
0.52510202 0.05468224 0.6099999 1.0786889e-38
0.53567237 0.054963689 0.60999984 1.0786889e-38
0.5453037 0.055158667 0.60976756 1.0786889e-38
0.69053185 0.053488687 0.60710967 1.0786889e-38
0.32999846 0.065278836 0.60389972 0
0.33521137 0.065141924 0.60999846 1.0786889e-38
0.34520358 0.064753659 0.60999864 1.0786889e-38
0.35515064 0.064939491 0.60999864 1.0786889e-38
0.36514717 0.065345399 0.6099987 1.0786889e-38
0.37533456 0.064937554 0.6099987 1.0786889e-38
0.38491884 0.064736374 0.60979688 1.0786889e-38
0.394779 0.065088011 0.60999876 1.0786889e-38
0.40460929 0.065252379 0.60999882 1.0786889e-38
0.41511783 0.064905487 0.60999882 1.0786889e-38
0.42529574 0.064785264 0.60999882 1.0786889e-38
0.4350307 0.065154642 0.60999888 1.0786889e-38
0.44482303 0.06490653 0.60999924 1.0786889e-38
0.45508838 0.065222383 0.60993785 1.0786889e-38
0.46544343 0.064986363 0.60999924 1.0786889e-38
0.47483206 0.065097615 0.60999942 1.0786889e-38
0.48455584 0.064663559 0.60999942 1.0786889e-38
0.4953458 0.065051414 0.6099996 1.0786889e-38
0.50540775 0.065413095 0.60999978 1.0786889e-38
0.51481539 0.065083578 0.6099999 1.0786889e-38
0.52510196 0.064486906 0.6099999 1.0786889e-38
0.53567231 0.064852789 0.60999984 1.0786889e-38
0.54544353 0.065191008 0.60999984 1.0786889e-38
0.55336595 0.062957637 0.6099999 1.0786889e-38
0.71305257 0.066671364 0.60679138 1.0786889e-38
0.32999843 0.075197093 0.60405129 0
0.33503002 0.075171016 0.60999858 1.0786889e-38
0.34533909 0.07500077 0.60999864 1.0786889e-38
0.35515064 0.074794471 0.6099987 1.0786889e-38
0.36514717 0.075293534 0.6099987 1.0786889e-38
0.37536535 0.074875481 0.6099987 1.0786889e-38
0.38496757 0.074835502 0.60999876 1.0786889e-38
0.39477894 0.075312279 0.60999876 1.0786889e-38
0.40492788 0.07479611 0.60999882 1.0786889e-38
0.41493821 0.074804418 0.60999882 1.0786889e-38
0.42519742 0.075179048 0.60999888 1.0786889e-38
0.43503067 0.074996933 0.60999894 1.0786889e-38
0.44503668 0.074810758 0.60999918 1.0786889e-38
0.45501381 0.075157672 0.60999918 1.0786889e-38
0.465271 0.074851558 0.6099993 1.0786889e-38
0.47483206 0.075284332 0.60999948 1.0786889e-38
0.48455578 0.074934416 0.6099993 1.0786889e-38
0.49522334 0.074763283 0.60999948 1.0786889e-38
0.50540787 0.075060457 0.6099996 1.0786889e-38
0.51470536 0.07546892 0.60999978 1.0786889e-38
0.5248822 0.074721128 0.60999995 1.0786889e-38
0.53567237 0.074741907 0.60999984 1.0786889e-38
0.54544342 0.075158186 0.6099999 1.0786889e-38
0.55137432 0.071238115 0.6099999 1.0786889e-38
0.65115619 0.073189959 0.60778767 1.0786889e-38
0.32999843 0.08486928 0.60405129 0
0.33502984 0.084838472 0.60999858 1.0786889e-38
0.34547582 0.085251711 0.60999864 1.0786889e-38
0.35515058 0.084649429 0.60999864 1.0786889e-38
0.36514705 0.08524166 0.6099987 1.0786889e-38
0.37533453 0.084818989 0.60999876 1.0786889e-38
0.38496765 0.084968366 0.60999876 1.0786889e-38
0.39453828 0.085329384 0.60997438 1.0786889e-38
0.4047645 0.084640913 0.60999876 1.0786889e-38
0.41493833 0.085216559 0.60999882 1.0786889e-38
0.42540458 0.084915563 0.60999888 1.0786889e-38
0.4350307 0.084839217 0.60999888 1.0786889e-38
0.4447431 0.085022584 0.60999918 1.0786889e-38
0.45501369 0.085172869 0.60999924 1.0786889e-38
0.46527109 0.084955536 0.60999924 1.0786889e-38
0.4747192 0.084857859 0.60999942 1.0786889e-38
0.48455578 0.085205264 0.60999942 1.0786889e-38
0.49534529 0.084981687 0.60999936 1.0786889e-38
0.50540793 0.084707789 0.60999972 1.0786889e-38
0.51470536 0.085190542 0.60999978 1.0786889e-38
0.5252021 0.085175022 0.60999995 1.0786889e-38
0.53552687 0.084612578 0.60993046 1.0786889e-38
0.54544342 0.085125312 0.60999984 1.0786889e-38
0.58719045 0.089106545 0.60411394 1.0786889e-38
0.76872814 0.082829393 0.60631096 1.0786889e-38
0.82189798 0.081573345 0.60255957 1.0786889e-38
0.32999846 0.094782114 0.60420257 0
0.3348484 0.094860576 0.60999846 1.0786889e-38
0.34533957 0.095226482 0.60999864 1.0786889e-38
0.35501203 0.094715007 0.6099987 1.0786889e-38
0.36514726 0.095189765 0.6099987 1.0786889e-38
0.37533453 0.094862059 0.6099987 1.0786889e-38
0.38496765 0.09510117 0.60999876 1.0786889e-38
0.39481178 0.094922259 0.60999876 1.0786889e-38
0.40476453 0.094958246 0.60999876 1.0786889e-38
0.41472766 0.095217332 0.60999882 1.0786889e-38
0.42529574 0.094810002 0.60999882 1.0786889e-38
0.43484184 0.095076226 0.60999882 1.0786889e-38
0.44512743 0.0949146 0.60999918 1.0786889e-38
0.45491028 0.095068373 0.60999918 1.0786889e-38
0.465271 0.095059492 0.6099993 1.0786889e-38
0.47493508 0.095018402 0.60999942 1.0786889e-38
0.48443568 0.094827615 0.6099993 1.0786889e-38
0.49546862 0.095202953 0.60999966 1.0786889e-38
0.50524008 0.094855919 0.60999978 1.0786889e-38
0.5147053 0.094912171 0.60999978 1.0786889e-38
0.52523106 0.095387571 0.60999995 1.0786889e-38
0.53567231 0.094520099 0.60999984 1.0786889e-38
0.54544342 0.095092461 0.60999984 1.0786889e-38
0.55137432 0.099612601 0.6099999 1.0786889e-38
0.32999846 0.10490322 0.60405153 0
0.33513349 0.10511675 0.60999846 1.0786889e-38
0.34533948 0.10499001 0.60999864 1.0786889e-38
0.35512263 0.10496302 0.6099987 1.0786889e-38
0.36514711 0.1051379 0.6099987 1.0786889e-38
0.37533456 0.10490512 0.60999876 1.0786889e-38
0.38496763 0.10523402 0.60999876 1.0786889e-38
0.39484251 0.1048324 0.60999876 1.0786889e-38
0.40466973 0.10516022 0.60999876 1.0786889e-38
0.41514397 0.1048588 0.60999882 1.0786889e-38
0.42513472 0.10508096 0.60999882 1.0786889e-38
0.4352195 0.10488617 0.60999888 1.0786889e-38
0.44476861 0.10500056 0.60999918 1.0786889e-38
0.45512855 0.10506526 0.60999924 1.0786889e-38
0.46509829 0.1049173 0.60999924 1.0786889e-38
0.47483215 0.10506087 0.60999948 1.0786889e-38
0.48455539 0.10495599 0.6099993 1.0786889e-38
0.4953458 0.10491382 0.60999942 1.0786889e-38
0.50558096 0.10526985 0.60999978 1.0786889e-38
0.5147053 0.10463376 0.60999978 1.0786889e-38
0.52510208 0.10533968 0.6099999 1.0786889e-38
0.53554755 0.10458639 0.6099999 1.0786889e-38
0.54544342 0.10505962 0.6099999 1.0786889e-38
0.55137438 0.10545442 0.6099999 1.0786889e-38
0.32999846 0.11502833 0.60389966 0
0.33511358 0.11513205 0.60999852 1.0694693e-38
0.34525636 0.11485733 0.60999864 1.0786889e-38
0.35517883 0.11511636 0.60999864 1.0786889e-38
0.36514714 0.11508602 0.6099987 1.0786889e-38
0.37539569 0.11484271 0.60999876 1.0786889e-38
0.38487622 0.11525275 0.60999876 1.0786889e-38
0.39487401 0.11484768 0.60999876 1.0786889e-38
0.40468711 0.11510615 0.60999876 1.0786889e-38
0.41493827 0.11496551 0.60999882 1.0786889e-38
0.42535797 0.11494587 0.60999882 1.0786889e-38
0.43493062 0.11500379 0.60999888 1.0786889e-38
0.44511083 0.11490248 0.60999918 1.0786889e-38
0.45476332 0.114975 0.60993898 1.0786889e-38
0.4654527 0.11499474 0.60999924 1.0786889e-38
0.47467268 0.11494936 0.60999942 1.0786889e-38
0.48467645 0.1150872 0.60999936 1.0786889e-38
0.49513641 0.11489292 0.60999936 1.0786889e-38
0.50540787 0.11525774 0.60999972 1.0786889e-38
0.51452971 0.1146957 0.60999984 1.0786889e-38
0.52510214 0.11514433 0.6099999 1.0786889e-38
0.53560978 0.11479742 0.6099999 1.0786889e-38
0.54544348 0.11502676 0.60999984 1.0786889e-38
0.55137438 0.11546893 0.6099999 1.0786889e-38
0.74315214 0.11483084 0.60759133 1.0786889e-38
0.32999843 0.12493981 0.60405117 0
0.3349466 0.12497757 0.60999852 1.0694693e-38
0.3452577 0.12491812 0.60999864 1.0694693e-38
0.3552072 0.12517184 0.6099987 1.0694693e-38
0.36514717 0.12503415 0.6099987 1.0786889e-38
0.37533456 0.12478685 0.60999876 1.0786889e-38
0.38491297 0.12514035 0.60999876 1.0786889e-38
0.39477918 0.12497301 0.60999876 1.0786889e-38
0.4048422 0.12492134 0.60999876 1.0786889e-38
0.41477001 0.12517151 0.60999882 1.0786889e-38
0.42539358 0.12495314 0.60999882 1.0786889e-38
0.43503109 0.12496448 0.60999888 1.0786889e-38
0.44483361 0.12497709 0.60999918 1.0786889e-38
0.45519233 0.12496497 0.60999918 1.0786889e-38
0.46507201 0.12499429 0.60999924 1.0786889e-38
0.47499648 0.12510514 0.60999942 1.0786889e-38
0.48436847 0.12498252 0.60999936 1.0786889e-38
0.49544099 0.12510362 0.60999936 1.0786889e-38
0.50548494 0.12478182 0.60968179 1.0786889e-38
0.51476359 0.12504281 0.60999978 1.0786889e-38
0.52510196 0.12494901 0.6099999 1.0786889e-38
0.53567207 0.12500997 0.6099999 1.0786889e-38
0.54544353 0.12499394 0.60999984 1.0786889e-38
0.55137438 0.12548347 0.6099999 1.0786889e-38
0.64591151 0.12584937 0.60142517 1.0786889e-38
0.32991943 0.13498932 0.60441321 2.7658689e-40
0.33493593 0.13490254 0.60999852 1.0694693e-38
0.34533936 0.13497643 0.60999864 1.0694693e-38
0.35515061 0.13513017 0.6099987 1.0694693e-38
0.36514711 0.13498227 0.6099987 1.0694693e-38
0.37533444 0.13482991 0.6099987 1.0786889e-38
0.38494951 0.13502897 0.60999876 1.0786889e-38
0.3946836 0.13509578 0.60999876 1.0786889e-38
0.40485886 0.13487072 0.60999876 1.0786889e-38
0.41493875 0.13504452 0.60999882 1.0786889e-38
0.42513475 0.13510144 0.60999882 1.0786889e-38
0.43513027 0.13492802 0.60999888 1.0786889e-38
0.44493574 0.13502543 0.60999918 1.0786889e-38
0.45484418 0.13500051 0.60999918 1.0786889e-38
0.46547011 0.1350753 0.6099993 1.0786889e-38
0.47471914 0.13500299 0.60999942 1.0786889e-38
0.48462397 0.13510627 0.6099993 1.0786889e-38
0.49547064 0.13506941 0.6099208 1.0786889e-38
0.50523496 0.13488725 0.60999966 1.0786889e-38
0.51482642 0.13524669 0.60999984 1.0786889e-38
0.52510202 0.13475366 0.6099999 1.0786889e-38
0.53567237 0.13506384 0.60999984 1.0786889e-38
0.54544348 0.13496108 0.6099999 1.0786889e-38
0.55137438 0.13549799 0.6099999 1.0786889e-38
0.8222397 0.13037127 0.60625356 1.0786889e-38
0.32999846 0.14497371 0.60405153 0
0.33506423 0.14499933 0.60999846 1.0694693e-38
0.34537059 0.14505041 0.60999763 1.0694693e-38
0.35523576 0.14508389 0.6099987 1.0694693e-38
0.36514726 0.14493039 0.6099987 1.0694693e-38
0.37533444 0.14487295 0.60999876 1.0694693e-38
0.38498592 0.14491865 0.60999876 1.0694693e-38
0.39471576 0.145109 0.60999876 1.0786889e-38
0.40476453 0.14507097 0.60999876 1.0786889e-38
0.41510597 0.14492211 0.60999882 1.0786889e-38
0.42535788 0.14497226 0.60999882 1.0786889e-38
0.43484184 0.14503646 0.60999888 1.0786889e-38
0.4449349 0.14495352 0.60999918 1.0786889e-38
0.45519227 0.14499849 0.60999918 1.0786889e-38
0.46508971 0.14506857 0.60999918 1.0786889e-38
0.47483176 0.14502321 0.60999942 1.0786889e-38
0.48467651 0.14511275 0.60999936 1.0786889e-38
0.49522337 0.14491394 0.60999936 1.0786889e-38
0.50540769 0.14500229 0.6099996 1.0786889e-38
0.51470536 0.14514056 0.60999978 1.0786889e-38
0.52490157 0.14483839 0.60999995 1.0786889e-38
0.53573489 0.14511363 0.60999984 1.0786889e-38
0.54544353 0.14492823 0.60999984 1.0786889e-38
0.55144966 0.1454951 0.60958534 1.0786889e-38
0.81365365 0.14433049 0.60920626 1.0786889e-38
0.8294301 0.14872302 0.60754532 1.0786889e-38
0.32999846 0.15510431 0.60389972 0
0.33508974 0.15501282 0.60999852 1.0694693e-38
0.34542304 0.15510105 0.60999864 1.0694693e-38
0.35515064 0.15504201 0.60999864 1.0694693e-38
0.36514723 0.1548785 0.6099987 1.0694693e-38
0.37533453 0.15491599 0.6099987 1.0694693e-38
0.38496771 0.15493181 0.60999876 1.0694693e-38
0.39474699 0.15501875 0.60999876 1.0694693e-38
0.40460926 0.15514788 0.60999876 1.0786889e-38
0.41483915 0.1550215 0.60999882 1.0786889e-38
0.4253937 0.15498053 0.60999882 1.0786889e-38
0.43521944 0.15486299 0.60999888 1.0786889e-38
0.44488183 0.15494123 0.60981005 1.0786889e-38
0.45481828 0.15490048 0.60999918 1.0786889e-38
0.46533698 0.15503204 0.60999924 1.0786889e-38
0.47494537 0.15504618 0.60999942 1.0786889e-38
0.48436838 0.15500028 0.6099993 1.0786889e-38
0.4952499 0.15487672 0.60999936 1.0786889e-38
0.50558102 0.15512165 0.60999966 1.0786889e-38
0.51470524 0.15486217 0.60999972 1.0786889e-38
0.52507609 0.15504302 0.60999995 1.0786889e-38
0.53567237 0.15517221 0.60999984 1.0786889e-38
0.54544348 0.1548954 0.6099999 1.0786889e-38
0.55166066 0.1558844 0.60951859 1.0786889e-38
0.67292476 0.15810582 0.60174197 1.0786889e-38
0.84934759 0.15080859 0.60726714 1.0786889e-38
0.32999843 0.16501032 0.60405117 0
0.33497277 0.1650248 0.60999846 1.0694693e-38
0.34525639 0.16506581 0.60999864 1.0694693e-38
0.35506588 0.1649977 0.6099987 1.0694693e-38
0.36506096 0.16492832 0.6099987 1.0694693e-38
0.37533453 0.16495907 0.6099987 1.0694693e-38
0.38502246 0.16494264 0.60999876 1.0694693e-38
0.39481091 0.16492929 0.60999876 1.0694693e-38
0.4047648 0.16496727 0.60999876 1.0694693e-38
0.41483754 0.16511308 0.60999882 1.0694693e-38
0.42513472 0.16512187 0.60999882 1.0786889e-38
0.43493065 0.16496794 0.60999888 1.0786889e-38
0.44510174 0.16505954 0.60999918 1.0786889e-38
0.45520934 0.16490306 0.60999918 1.0786889e-38
0.4652715 0.16500907 0.60999918 1.0786889e-38
0.47466782 0.1649361 0.60999942 1.0786889e-38
0.48455548 0.16500038 0.6099993 1.0786889e-38
0.49544105 0.16496921 0.60999936 1.0786889e-38
0.50540793 0.16510241 0.60999966 1.0786889e-38
0.5145846 0.16475202 0.60999978 1.0786889e-38
0.5251022 0.16498283 0.6099999 1.0786889e-38
0.53579766 0.16521986 0.6099999 1.0786889e-38
0.54544348 0.16486257 0.60999984 1.0786889e-38
0.55137438 0.1655416 0.6099999 1.0786889e-38
0.58133483 0.16102895 0.60984588 1.0786889e-38
0.630256 0.16549076 0.60239697 1.0786889e-38
0.64332199 0.1656535 0.60858625 1.0786889e-38
0.32999846 0.17491226 0.60420269 0
0.33499399 0.17503701 0.60999846 1.0694693e-38
0.34528393 0.17502719 0.60999864 1.0694693e-38
0.35509408 0.17505243 0.60999864 1.0694693e-38
0.36514717 0.17497694 0.6099987 1.0694693e-38
0.37533453 0.17500214 0.6099987 1.0694693e-38
0.38496765 0.17495672 0.60999876 1.0694693e-38
0.39484248 0.17494576 0.60999876 1.0694693e-38
0.40482122 0.17491525 0.60999876 1.0694693e-38
0.41497207 0.17509937 0.60999882 1.0694693e-38
0.42535797 0.1749987 0.60999882 1.0694693e-38
0.43496805 0.1750602 0.60999882 1.0786889e-38
0.44474319 0.17512316 0.60999918 1.0786889e-38
0.45481834 0.17492753 0.60999918 1.0786889e-38
0.46520433 0.17498456 0.60999924 1.0786889e-38
0.47499141 0.17510565 0.60999942 1.0786889e-38
0.48474368 0.17500508 0.6099993 1.0786889e-38
0.49546865 0.17493594 0.60999936 1.0786889e-38
0.50528896 0.17491569 0.60999978 1.0786889e-38
0.51464647 0.17495506 0.60999978 1.0786889e-38
0.52512759 0.17492333 0.60999995 1.0786889e-38
0.53567243 0.17528111 0.60999984 1.0786889e-38
0.54544342 0.17482971 0.6099999 1.0786889e-38
0.55137438 0.17555612 0.6099999 1.0786889e-38
0.6603266 0.17625019 0.60675406 1.0786889e-38
0.32999846 0.18504424 0.60405159 0
0.33502969 0.18496399 0.60999852 1.0694693e-38
0.34531167 0.18498944 0.60999864 1.0694693e-38
0.35515061 0.1850078 0.6099987 1.0694693e-38
0.3650896 0.18502563 0.60999864 1.0694693e-38
0.37533453 0.1850452 0.6099987 1.0694693e-38
0.38505861 0.18496834 0.60999876 1.0694693e-38
0.39477918 0.18506582 0.60999876 1.0694693e-38
0.40485895 0.18498774 0.60999876 1.0694693e-38
0.41500619 0.18498141 0.60999882 1.0694693e-38
0.42539373 0.18500787 0.60999882 1.0694693e-38
0.43519416 0.18502614 0.60999888 1.0694693e-38
0.4451274 0.18504535 0.60999912 1.0786889e-38
0.45520926 0.18493684 0.60999918 1.0786889e-38
0.46545279 0.18495625 0.60999924 1.0786889e-38
0.47480208 0.18516713 0.60979295 1.0786889e-38
0.48436847 0.18501805 0.60999936 1.0786889e-38
0.49515498 0.18490557 0.60999936 1.0786889e-38
0.50534821 0.18488061 0.60999948 1.0786889e-38
0.51476574 0.18515764 0.60999978 1.0786889e-38
0.52517915 0.18500046 0.60999995 1.0786889e-38
0.53567243 0.1851702 0.60999984 1.0786889e-38
0.54544342 0.18479685 0.6099999 1.0786889e-38
0.55137438 0.18557066 0.6099999 1.0786889e-38
0.59157062 0.18771741 0.60699934 1.0786889e-38
0.32999843 0.19494669 0.60405117 0
0.3350656 0.19489193 0.60999852 1.0694693e-38
0.34533936 0.1949524 0.60999864 1.0694693e-38
0.35512218 0.19496259 0.60999864 1.0694693e-38
0.36514723 0.19507569 0.6099987 1.0694693e-38
0.37533453 0.19508825 0.6099987 1.0694693e-38
0.38496757 0.19498201 0.60999876 1.0694693e-38
0.39477864 0.19508147 0.60999876 1.0694693e-38
0.40466979 0.19506067 0.60999876 1.0694693e-38
0.41483757 0.19485934 0.60999882 1.0694693e-38
0.42511016 0.19501717 0.60999882 1.0694693e-38
0.4349578 0.19492593 0.60990596 1.0694693e-38
0.44474319 0.19497579 0.60999918 1.0694693e-38
0.45481828 0.19495457 0.60999918 1.0694693e-38
0.46507201 0.19493294 0.60999918 1.0786889e-38
0.47477546 0.19486129 0.60999936 1.0786889e-38
0.48455545 0.19502287 0.60999936 1.0786889e-38
0.49534547 0.1950013 0.60999936 1.0786889e-38
0.50546515 0.19500621 0.60999978 1.0786889e-38
0.51482642 0.19520266 0.60999978 1.0786889e-38
0.52523106 0.19507882 0.60999995 1.0786889e-38
0.53567237 0.19505928 0.60999984 1.0786889e-38
0.54544348 0.194764 0.60999984 1.0786889e-38
0.55137438 0.19558518 0.6099999 1.0786889e-38
0.32999846 0.20485377 0.60389978 0
0.3350305 0.20498969 0.60999846 1.0694693e-38
0.34536716 0.20491618 0.60999864 1.0694693e-38
0.35515046 0.20501913 0.60999864 1.0694693e-38
0.36514723 0.20502378 0.6099987 1.0694693e-38
0.37533468 0.20513129 0.6099987 1.0694693e-38
0.38487631 0.20499316 0.60999876 1.0694693e-38
0.39471564 0.20499055 0.60999876 1.0694693e-38
0.40474916 0.20508106 0.60992295 1.0694693e-38
0.41493842 0.20495431 0.60999882 1.0694693e-38
0.42537633 0.20490003 0.60999882 1.0694693e-38
0.43511263 0.20496485 0.60999888 1.0694693e-38
0.44501877 0.20503075 0.60999918 1.0694693e-38
0.45467952 0.20429625 0.6099993 1.0694693e-38
0.4638283 0.20204154 0.609873 1.0786889e-38
0.48621041 0.20114212 0.60999954 1.0786889e-38
0.49615228 0.20256516 0.6099996 1.0786889e-38
0.50570315 0.2042186 0.60999966 1.0786889e-38
0.51470524 0.20509051 0.60999972 1.0786889e-38
0.5251019 0.20502046 0.6099999 1.0786889e-38
0.53567243 0.20494844 0.60999978 1.0786889e-38
0.54531658 0.20489952 0.60999995 1.0786889e-38
0.55137438 0.20559968 0.6099999 1.0786889e-38
0.32999843 0.21497732 0.60420257 0
0.33499417 0.21508649 0.60999846 1.0694693e-38
0.34531239 0.21498051 0.60999864 1.0694693e-38
0.35515064 0.21497467 0.6099987 1.0694693e-38
0.36511827 0.21507214 0.6099987 1.0694693e-38
0.37524244 0.21507215 0.6099987 1.0694693e-38
0.38496763 0.21500553 0.60999876 1.0694693e-38
0.39478162 0.21499699 0.60990304 1.0694693e-38
0.40478358 0.21495737 0.60999876 1.0694693e-38
0.41503918 0.21505205 0.60999882 1.0694693e-38
0.42529526 0.21490815 0.60999882 1.0694693e-38
0.43496743 0.21493191 0.60999888 1.0694693e-38
0.44475943 0.21498203 0.60999918 1.0694693e-38
0.45174912 0.2117513 0.60999924 1.0694693e-38
0.49533546 0.21975207 0.60144371 1.0786889e-38
0.51620436 0.21131904 0.60999966 1.0786889e-38
0.52561474 0.21364948 0.60999972 1.0786889e-38
0.53554749 0.21500356 0.6099999 1.0694693e-38
0.54544348 0.21502951 0.6099999 1.0786889e-38
0.55137438 0.21561424 0.6099999 1.0786889e-38
0.70488441 0.21078733 0.60931128 1.0786889e-38
0.32999837 0.22511476 0.60405141 0
0.33502963 0.22501484 0.60999852 1.0694693e-38
0.34536687 0.2251372 0.60999864 1.0694693e-38
0.35517871 0.22493176 0.6099987 1.0694693e-38
0.36514717 0.22512276 0.6099987 1.0694693e-38
0.3753345 0.22501162 0.6099987 1.0694693e-38
0.38491291 0.22501615 0.60999876 1.0694693e-38
0.39477924 0.22502305 0.60999876 1.0694693e-38
0.40482131 0.22503056 0.60999876 1.0694693e-38
0.41476819 0.22491741 0.60995144 1.0510302e-38
0.42521542 0.22491403 0.60999882 1.0694693e-38
0.435031 0.22490104 0.60999888 1.0694693e-38
0.44253671 0.22386262 0.6099993 1.0694693e-38
0.53761131 0.22256926 0.60999984 1.0694693e-38
0.54572433 0.22471109 0.60999978 1.0694693e-38
0.55137438 0.22562875 0.6099999 1.0694693e-38
0.3299984 0.23501723 0.60405135 0
0.33498317 0.23502961 0.60999846 1.0694693e-38
0.34531161 0.23520054 0.60999864 1.0694693e-38
0.35515061 0.23488596 0.60999864 1.0694693e-38
0.36514726 0.23507093 0.6099987 1.0694693e-38
0.37533444 0.2350547 0.6099987 1.0694693e-38
0.38494951 0.2349081 0.60999876 1.0694693e-38
0.39481089 0.23504066 0.60999876 1.0694693e-38
0.40476409 0.23497827 0.60999876 1.0694693e-38
0.41490552 0.23491408 0.60999882 1.0694693e-38
0.42535797 0.23494203 0.60993749 1.0602497e-38
0.43463188 0.23471197 0.60999894 1.0694693e-38
0.54753602 0.23426285 0.60999995 1.0694693e-38
0.55137438 0.23564328 0.6099999 1.0694693e-38
0.68802977 0.23871645 0.60928917 1.0786889e-38
0.85971022 0.23390795 0.60333943 1.0786889e-38
0.3299984 0.24514998 0.60405105 0
0.33503005 0.24503984 0.60999852 1.0694693e-38
0.34533954 0.24506526 0.60999864 1.0694693e-38
0.35512307 0.24494398 0.60999864 1.0694693e-38
0.36514723 0.24501903 0.6099987 1.0694693e-38
0.37527335 0.24499513 0.6099987 1.0694693e-38
0.38496757 0.24492091 0.60999876 1.0694693e-38
0.39468375 0.24505651 0.60999876 1.0694693e-38
0.40470794 0.24492441 0.60999876 1.0694693e-38
0.41493833 0.24511541 0.60999882 1.0694693e-38
0.42532191 0.24508007 0.60982096 1.05103e-38
0.43448445 0.24511081 0.60999894 1.0694693e-38
0.54839951 0.2451271 0.61000001 1.0694693e-38
0.55137438 0.2456578 0.6099999 1.0694693e-38
0.78746706 0.24372384 0.60003841 1.0694693e-38
0.32999837 0.25528276 0.60405111 0
0.33507687 0.2550514 0.60999852 1.0694693e-38
0.34533936 0.25492838 0.60999864 1.0694693e-38
0.35509413 0.25509778 0.60999864 1.0694693e-38
0.36514723 0.25496715 0.6099987 1.0694693e-38
0.37533456 0.25493526 0.6099987 1.0694693e-38
0.38496757 0.25505373 0.60999876 1.0694693e-38
0.39477906 0.25496501 0.60999876 1.0694693e-38
0.40474579 0.25499716 0.60999876 1.0694693e-38
0.41502649 0.2550118 0.60993123 1.0602497e-38
0.42521548 0.25493664 0.60999882 1.0694693e-38
0.43505082 0.25505972 0.60999888 1.0694693e-38
0.44305068 0.25631055 0.6099993 1.0694693e-38
0.53955626 0.25842971 0.6099999 1.0694693e-38
0.54589772 0.2554163 0.60999978 1.0694693e-38
0.55337548 0.25646526 0.6099999 1.0694693e-38
0.59231633 0.2529577 0.60589594 1.0694693e-38
0.3299984 0.26495498 0.60405129 0
0.33501768 0.26497802 0.60999852 1.0694693e-38
0.34528512 0.26499349 0.60999864 1.0694693e-38
0.35515052 0.26505345 0.60999864 1.0694693e-38
0.36514705 0.26501679 0.6099987 1.0694693e-38
0.37533453 0.26497838 0.6099987 1.0694693e-38
0.38498598 0.26506716 0.60999876 1.0694693e-38
0.39477912 0.26498061 0.60999876 1.0694693e-38
0.40478352 0.26507103 0.60999876 1.0694693e-38
0.41499975 0.26488069 0.60986549 1.0694693e-38
