# .PCD v0.7 - Point Cloud Data file format
VERSION 0.7
FIELDS x y z rgb
SIZE 4 4 4 4
TYPE F F F F
COUNT 1 1 1 1
WIDTH 1015
HEIGHT 1
VIEWPOINT 0 0 0 1 0 0 0
POINTS 1015
DATA ascii
0.77510536 0.30500436 0.6100015 1.0694693e-38
0.78489769 0.30480611 0.61000156 1.0694693e-38
0.79475921 0.30501989 0.61000156 1.0694693e-38
0.80474633 0.30523646 0.61000162 1.0694693e-38
0.8148737 0.30478254 0.61000162 1.0694693e-38
0.82513154 0.30500051 0.61000186 1.0694693e-38
0.83403832 0.30528834 0.61000174 1.0694693e-38
0.84432542 0.30490863 0.61000186 1.0694693e-38
0.85522938 0.3050485 0.61000192 1.0694693e-38
0.86471301 0.30498311 0.6100021 1.0694693e-38
0.45212805 0.31629214 0.61570543 1.0694693e-38
0.55636591 0.31525338 0.61000007 1.0694693e-38
0.56545603 0.31500661 0.60999995 1.0694693e-38
0.57577634 0.3151682 0.61000019 1.0694693e-38
0.58493227 0.31486693 0.61000025 1.0694693e-38
0.59450358 0.31499863 0.61000043 1.0694693e-38
0.60537863 0.31499431 0.61000043 1.0694693e-38
0.61510801 0.31490669 0.61000049 1.0694693e-38
0.62514621 0.31499138 0.61000055 1.0694693e-38
0.63517129 0.31491545 0.61000055 1.0694693e-38
0.64428544 0.31511864 0.61000055 1.0694693e-38
0.65460777 0.31504199 0.61000061 1.0694693e-38
0.66525292 0.31513107 0.61000067 1.0694693e-38
0.67456537 0.31487772 0.61000067 1.0694693e-38
0.68422616 0.31508666 0.61000079 1.0694693e-38
0.69424826 0.31483823 0.61000085 1.0694693e-38
0.70418853 0.31504992 0.61000085 1.0694693e-38
0.71445209 0.31503341 0.61000097 1.0694693e-38
0.72455984 0.31477129 0.61000127 1.0694693e-38
0.73493767 0.31498712 0.61000127 1.0694693e-38
0.7454046 0.31496364 0.61000133 1.0694693e-38
0.75474173 0.31491393 0.61000144 1.0694693e-38
0.76420647 0.3148635 0.6100015 1.0694693e-38
0.77517116 0.31508607 0.6100015 1.0694693e-38
0.78489757 0.31503609 0.61000156 1.0694693e-38
0.79475915 0.31498536 0.61000156 1.0694693e-38
0.80474627 0.31526849 0.61000162 1.0694693e-38
0.81487381 0.31488207 0.61000168 1.0694693e-38
0.8251316 0.31516826 0.61000186 1.0694693e-38
0.83382463 0.31518188 0.61000186 1.0694693e-38
0.84456462 0.31495062 0.61000186 1.0694693e-38
0.85500997 0.31507847 0.61000204 1.0694693e-38
0.8644914 0.31507546 0.61000216 1.0694693e-38
0.47278738 0.32443208 0.61886561 1.0694693e-38
0.55636603 0.32530776 0.61000007 1.0694693e-38
0.56545621 0.32496482 0.60999995 1.0694693e-38
0.57556224 0.32503331 0.61000001 1.0694693e-38
0.58506912 0.32493901 0.61000031 1.0694693e-38
0.59457695 0.32501733 0.61000043 1.0694693e-38
0.60515457 0.3250879 0.61000043 1.0694693e-38
0.61506075 0.3247709 0.61000043 1.0694693e-38
0.62506694 0.32507232 0.61000055 1.0694693e-38
0.6353184 0.32493657 0.61000055 1.0694693e-38
0.64428478 0.32497904 0.61000055 1.0694693e-38
0.65477759 0.32496315 0.61000061 1.0694693e-38
0.66525346 0.32514489 0.61000067 1.0694693e-38
0.67500168 0.32497233 0.61000067 1.0694693e-38
0.68450505 0.32501614 0.61000079 1.0694693e-38
0.69424778 0.32506439 0.61000079 1.0694693e-38
0.70412821 0.32511294 0.61000091 1.0694693e-38
0.71408945 0.32492569 0.61000097 1.0694693e-38
0.72449923 0.32498035 0.61000097 1.0694693e-38
0.73506254 0.32503712 0.61000127 1.0694693e-38
0.74546754 0.32484356 0.61000133 1.0694693e-38
0.75474203 0.32493639 0.61000144 1.0694693e-38
0.76427096 0.32487169 0.6100015 1.0694693e-38
0.77517122 0.32492119 0.6100015 1.0694693e-38
0.78489769 0.32526597 0.61000156 1.0694693e-38
0.79475915 0.32495096 0.61000162 1.0694693e-38
0.80474633 0.32530057 0.61000162 1.0694693e-38
0.81510478 0.32479256 0.61033857 1.0694693e-38
0.82513189 0.32499701 0.61000192 1.0694693e-38
0.83403814 0.32505929 0.61000186 1.0694693e-38
0.84448534 0.32498795 0.61000186 1.0694693e-38
0.85522938 0.32509205 0.61000198 1.0694693e-38
0.86426926 0.32516357 0.6100021 1.0694693e-38
0.55636591 0.33536217 0.61000007 1.0694693e-38
0.56545603 0.33492306 0.60999995 1.0694693e-38
0.57570487 0.3350701 0.61000019 1.0694693e-38
0.58502364 0.33500648 0.61000037 1.0694693e-38
0.59465021 0.33503768 0.61000043 1.0694693e-38
0.60538101 0.33500284 0.61000043 1.0694693e-38
0.61515623 0.33485931 0.61000043 1.0694693e-38
0.62498695 0.33515152 0.61000055 1.0694693e-38
0.63496536 0.33494046 0.61000055 1.0694693e-38
0.64423543 0.33506137 0.61000055 1.0694693e-38
0.65460783 0.33491379 0.61000061 1.0694693e-38
0.66525292 0.3351588 0.61000067 1.0694693e-38
0.67456543 0.33504173 0.61000067 1.0694693e-38
0.68444771 0.33493823 0.61000079 1.0694693e-38
0.69442433 0.33506504 0.61000085 1.0694693e-38
0.70424747 0.33494753 0.61000091 1.0694693e-38
0.71420985 0.33482915 0.61000091 1.0694693e-38
0.72443724 0.33518824 0.61000115 1.0694693e-38
0.73468924 0.33507076 0.61000127 1.0694693e-38
0.74559426 0.33496809 0.61000133 1.0694693e-38
0.75491005 0.33495504 0.61000144 1.0694693e-38
0.76420647 0.33487636 0.6100015 1.0694693e-38
0.77523667 0.33500472 0.6100015 1.0694693e-38
0.78489769 0.33516586 0.61000156 1.0694693e-38
0.79475915 0.3349165 0.61000162 1.0694693e-38
0.80474645 0.3349981 0.61000162 1.0694693e-38
0.8148737 0.33508089 0.61000168 1.0694693e-38
0.8251316 0.33482584 0.61000186 1.0694693e-38
0.83403856 0.33494538 0.61000192 1.0694693e-38
0.84468162 0.33490178 0.610071 1.0694693e-38
0.85522968 0.33511454 0.61000204 1.0694693e-38
0.86449146 0.33489046 0.6100021 1.0694693e-38
0.48559153 0.34883136 0.6177898 1.0694693e-38
0.55636591 0.34541658 0.61000007 1.0694693e-38
0.56545603 0.34505004 0.60999995 1.0694693e-38
0.57577854 0.34493327 0.61000007 1.0694693e-38
0.58506906 0.34507751 0.61000031 1.0694693e-38
0.59442973 0.34504512 0.61000043 1.0694693e-38
0.60530418 0.34493259 0.61000043 1.0694693e-38
0.61525142 0.3449499 0.61000049 1.0694693e-38
0.62514627 0.34503549 0.61000055 1.0694693e-38
0.63522053 0.3449659 0.61000055 1.0694693e-38
0.64433968 0.34492594 0.61000055 1.0694693e-38
0.65477419 0.34501824 0.61000061 1.0694693e-38
0.66525364 0.34517252 0.61000067 1.0694693e-38
0.67484027 0.34490597 0.61000067 1.0694693e-38
0.68444687 0.34509259 0.61000085 1.0694693e-38
0.69411993 0.34496546 0.61032254 1.0694693e-38
0.70418847 0.3450104 0.61000085 1.0694693e-38
0.71433079 0.34473509 0.61000091 1.0694693e-38
0.72455984 0.34516567 0.61000121 1.0694693e-38
0.73481321 0.34511906 0.61000127 1.0694693e-38
0.74521548 0.3450726 0.61000133 1.0694693e-38
0.75474209 0.3449825 0.61000144 1.0694693e-38
0.76440102 0.34489122 0.61000144 1.0694693e-38
0.77517128 0.34508374 0.6100015 1.0694693e-38
0.78489774 0.34506577 0.61000156 1.0694693e-38
0.79475915 0.34488201 0.61000162 1.0694693e-38
0.80474645 0.34469578 0.61000162 1.0694693e-38
0.8148737 0.34518039 0.61000168 1.0694693e-38
0.82513165 0.34499356 0.61000174 1.0694693e-38
0.83403832 0.3448315 0.61000186 1.0694693e-38
0.84464455 0.34507245 0.61000186 1.0694693e-38
0.85544837 0.34478822 0.61000198 1.0694693e-38
0.86449116 0.34497264 0.61000216 1.0694693e-38
0.5464682 0.35951751 0.6122154 1.0694693e-38
0.55636597 0.35547093 0.61000007 1.0694693e-38
0.56545597 0.35517704 0.60999995 1.0694693e-38
0.57570499 0.35480785 0.61000031 1.0694693e-38
0.5851149 0.35514966 0.61000025 1.0694693e-38
0.59465265 0.35488218 0.61000043 1.0694693e-38
0.60537857 0.35503691 0.61000043 1.0694693e-38
0.61496508 0.35502094 0.61000049 1.0694693e-38
0.625067 0.35511473 0.61000055 1.0694693e-38
0.63517076 0.35498005 0.61000055 1.0694693e-38
0.64423549 0.35478118 0.61000055 1.0694693e-38
0.65460503 0.35496637 0.61000061 1.0694693e-38
0.66519666 0.35495573 0.61000067 1.0694693e-38
0.67473161 0.35498449 0.61000067 1.0694693e-38
0.68444771 0.35524699 0.61000073 1.0694693e-38
0.69430649 0.35504833 0.61000085 1.0694693e-38
0.70412821 0.35507217 0.61000091 1.0694693e-38
0.71427107 0.35486969 0.61000085 1.0694693e-38
0.72449875 0.35489863 0.61000121 1.0694693e-38
0.73480934 0.35510144 0.61033297 1.0694693e-38
0.74534142 0.35519537 0.61000133 1.0694693e-38
0.75457436 0.35500646 0.61000144 1.0694693e-38
0.7640124 0.35512429 0.6100015 1.0694693e-38
0.77517128 0.3549189 0.6100015 1.0694693e-38
0.78489763 0.35496566 0.61000156 1.0694693e-38
0.79475927 0.35484761 0.61000156 1.0694693e-38
0.80474621 0.3547278 0.61000162 1.0694693e-38
0.81495053 0.35503107 0.61000162 1.0694693e-38
0.82513154 0.35516131 0.61000186 1.0694693e-38
0.83403796 0.35505849 0.6100018 1.0694693e-38
0.84456462 0.35510924 0.61000186 1.0694693e-38
0.85522932 0.3548153 0.61000198 1.0694693e-38
0.86471289 0.35505289 0.6100021 1.0694693e-38
0.55636591 0.36552534 0.61000007 1.0694693e-38
0.56545603 0.36530405 0.60999995 1.0694693e-38
0.57570481 0.36501667 0.61000019 1.0694693e-38
0.58506912 0.36521676 0.61000031 1.0694693e-38
0.59457678 0.3649019 0.61000043 1.0694693e-38
0.60515457 0.36512366 0.61000043 1.0694693e-38
0.61508638 0.36494419 0.61025232 1.0694693e-38
0.62498695 0.36519209 0.61000055 1.0694693e-38
0.63512212 0.3649931 0.61000055 1.0694693e-38
0.64433533 0.36509532 0.61000055 1.0694693e-38
0.65477425 0.36489248 0.61000061 1.0694693e-38
0.66530478 0.36497542 0.61000067 1.0694693e-38
0.67484045 0.36507407 0.61000067 1.0694693e-38
0.68438923 0.36516708 0.61000079 1.0694693e-38
0.69424826 0.36503926 0.61000085 1.0694693e-38
0.70424742 0.36490923 0.61000091 1.0694693e-38
0.71420985 0.36500311 0.61000091 1.0694693e-38
0.72449917 0.36487138 0.61000115 1.0694693e-38
0.73493767 0.36473733 0.61000127 1.0694693e-38
0.74540466 0.36507612 0.61000133 1.0694693e-38
0.75474197 0.36502632 0.61000144 1.0694693e-38
0.76420647 0.36513919 0.61000144 1.0694693e-38
0.77517122 0.36475402 0.6100015 1.0694693e-38
0.7848978 0.36486563 0.61000156 1.0694693e-38
0.79475921 0.36481318 0.61000162 1.0694693e-38
0.80474645 0.36475983 0.61000162 1.0694693e-38
0.81487381 0.36487475 0.61000168 1.0694693e-38
0.82534236 0.36498973 0.61000186 1.0694693e-38
0.83425122 0.36494425 0.61000192 1.0694693e-38
0.84456396 0.36489153 0.61000186 1.0694693e-38
0.85501003 0.36483827 0.61000198 1.0694693e-38
0.8644914 0.36513811 0.61000216 1.0694693e-38
0.4356547 0.37291205 0.61964494 1.0694693e-38
0.55616552 0.3748526 0.61000007 1.0694693e-38
0.56538332 0.3750971 0.60999995 1.0694693e-38
0.57570523 0.37505537 0.61000025 1.0694693e-38
0.58506888 0.37507197 0.61000025 1.0694693e-38
0.59457701 0.3750889 0.61000043 1.0694693e-38
0.60538101 0.37504557 0.61000043 1.0694693e-38
0.61515623 0.37520134 0.61000043 1.0694693e-38
0.62514621 0.37507966 0.61000055 1.0694693e-38
0.63522047 0.37523803 0.61000055 1.0694693e-38
0.64428484 0.37517691 0.61000055 1.0694693e-38
0.65460503 0.37483811 0.61000061 1.0694693e-38
0.66519672 0.3749826 0.61000067 1.0694693e-38
0.67478389 0.37492535 0.61000067 1.0694693e-38
0.68450499 0.37486693 0.61000085 1.0694693e-38
0.69418895 0.37502906 0.61000091 1.0694693e-38
0.70418841 0.37497094 0.61000085 1.0694693e-38
0.71433079 0.37491164 0.61000097 1.0694693e-38
0.72443724 0.37507749 0.61000109 1.0694693e-38
0.7348761 0.37501848 0.61000133 1.0694693e-38
0.74546766 0.37495828 0.61000133 1.0694693e-38
0.75474185 0.37504879 0.61000144 1.0694693e-38
0.76414144 0.3751412 0.61000144 1.0694693e-38
0.77497417 0.37484583 0.6100015 1.0694693e-38
0.78489774 0.37476552 0.61000156 1.0694693e-38
0.79475927 0.37477869 0.61000156 1.0694693e-38
0.80474627 0.3747918 0.61000162 1.0694693e-38
0.81487358 0.37497425 0.61000162 1.0694693e-38
0.82513165 0.37482026 0.6100018 1.0694693e-38
0.83403808 0.37483206 0.61000192 1.0694693e-38
0.84456462 0.37467369 0.61000186 1.0694693e-38
0.85522938 0.37485886 0.61000198 1.0694693e-38
0.86426938 0.3752192 0.6100021 1.0694693e-38
0.55536383 0.38534462 0.61000007 1.0694693e-38
0.56545597 0.38488242 0.60999995 1.0694693e-38
0.57570493 0.38509414 0.61000007 1.0694693e-38
0.58506912 0.38492712 0.61000031 1.0694693e-38
0.59450054 0.38493362 0.61000043 1.0694693e-38
0.60530424 0.38497293 0.61000043 1.0694693e-38
0.61510807 0.38506421 0.61000043 1.0694693e-38
0.62506688 0.38515702 0.61000055 1.0694693e-38
0.63511693 0.38502431 0.61000055 1.0694693e-38
0.64428544 0.38503715 0.61000055 1.0694693e-38
0.65477413 0.38476673 0.61000061 1.0694693e-38
0.66530496 0.38500386 0.61000067 1.0694693e-38
0.67478311 0.38500899 0.61000067 1.0694693e-38
0.68444771 0.38478699 0.61000073 1.0694693e-38
0.69430655 0.38479832 0.61000085 1.0694693e-38
0.70412827 0.38503137 0.61000091 1.0694693e-38
0.71427107 0.38504502 0.61000097 1.0694693e-38
0.72455978 0.3850584 0.61000115 1.0694693e-38
0.73481321 0.3852984 0.61000127 1.0694693e-38
0.74540472 0.3848325 0.61000133 1.0694693e-38
0.75474203 0.38507128 0.61000144 1.0694693e-38
0.76420647 0.38515109 0.61000144 1.0694693e-38
0.77536875 0.38515127 0.6100015 1.0694693e-38
0.7850728 0.3849974 0.61000156 1.0694693e-38
0.79475915 0.38474429 0.61000162 1.0694693e-38
0.80454993 0.38461417 0.6104545 1.0694693e-38
0.81487358 0.38507372 0.61000162 1.0694693e-38
0.82513165 0.38498795 0.6100018 1.0694693e-38
0.83403808 0.38505909 0.61000186 1.0694693e-38
0.84456474 0.38497081 0.61000186 1.0694693e-38
0.85522968 0.38488132 0.61000204 1.0694693e-38
0.86449158 0.3849532 0.6100021 1.0694693e-38
0.36547768 0.39465201 0.61274737 1.0694693e-38
0.56545603 0.39500946 0.60999995 1.0694693e-38
0.57556218 0.3951377 0.61000007 1.0694693e-38
0.58502376 0.3949925 0.61000025 1.0694693e-38
0.59457678 0.39494422 0.61000043 1.0694693e-38
0.60522652 0.39489847 0.61000043 1.0694693e-38
0.61506087 0.39492589 0.61000049 1.0694693e-38
0.62498701 0.39523259 0.61000055 1.0694693e-38
0.63522041 0.39482594 0.61000055 1.0694693e-38
0.64428478 0.39489749 0.61000055 1.0694693e-38
0.65469158 0.39506844 0.61000061 1.0694693e-38
0.66519684 0.39500937 0.61000067 1.0694693e-38
0.67478383 0.39509261 0.61000067 1.0694693e-38
0.68453956 0.39513454 0.61018205 1.0694693e-38
0.6942482 0.39478806 0.61000073 1.0694693e-38
0.70424742 0.39487103 0.61000091 1.0694693e-38
0.71420991 0.39517713 0.61000091 1.0694693e-38
0.72431505 0.39503485 0.61000097 1.0694693e-38
0.73487568 0.39510864 0.61000127 1.0694693e-38
0.74540514 0.39495143 0.61000133 1.0694693e-38
0.75491005 0.39509687 0.61000144 1.0694693e-38
0.76420653 0.39491326 0.61000144 1.0694693e-38
0.77517134 0.39524311 0.6100015 1.0694693e-38
0.78489774 0.39522654 0.61000156 1.0694693e-38
0.79475915 0.39470983 0.61000156 1.0694693e-38
0.80474627 0.39485595 0.61000162 1.0694693e-38
0.81487381 0.3951731 0.61000168 1.0694693e-38
0.82513165 0.39515573 0.61000174 1.0694693e-38
0.83382481 0.39494148 0.61000192 1.0694693e-38
0.84448534 0.39500454 0.61000186 1.0694693e-38
0.85507208 0.39493319 0.61052698 1.0694693e-38
0.8644914 0.39503533 0.61000216 1.0694693e-38
0.34724072 0.40911308 0.61723948 1.0602497e-38
0.43706009 0.40168545 0.61171073 1.0694693e-38
0.56545597 0.40513644 0.60999995 1.0694693e-38
0.5757764 0.40499851 0.61000007 1.0694693e-38
0.58506918 0.40506569 0.61000037 1.0694693e-38
0.59465265 0.40495661 0.61000043 1.0694693e-38
0.60530388 0.40499249 0.61000043 1.0694693e-38
0.61515623 0.40501934 0.61000043 1.0694693e-38
0.62514609 0.40512374 0.61000055 1.0694693e-38
0.63517058 0.40483817 0.61000055 1.0694693e-38
0.64423549 0.40497723 0.61000055 1.0694693e-38
0.65451849 0.40518969 0.61000061 1.0694693e-38
0.6653049 0.40503234 0.61000067 1.0694693e-38
0.67472619 0.40494189 0.61000073 1.0694693e-38
0.68444771 0.40509579 0.61000067 1.0694693e-38
0.69418895 0.40477651 0.61000085 1.0694693e-38
0.70418841 0.40493152 0.61000085 1.0694693e-38
0.71433079 0.40508816 0.61000097 1.0694693e-38
0.72468299 0.40499204 0.61000121 1.0694693e-38
0.73493767 0.40492016 0.61000127 1.0694693e-38
0.74540472 0.40507022 0.61000133 1.0694693e-38
0.75474197 0.40511742 0.61000144 1.0694693e-38
0.76427096 0.40492508 0.61000144 1.0694693e-38
0.77517128 0.40507823 0.6100015 1.0694693e-38
0.78489769 0.40512645 0.61000156 1.0694693e-38
0.79475915 0.40467533 0.61000156 1.0694693e-38
0.80474633 0.40488797 0.61000162 1.0694693e-38
0.8148737 0.40527257 0.61000168 1.0694693e-38
0.82492071 0.40497944 0.61000174 1.0694693e-38
0.83403832 0.40483001 0.61000186 1.0694693e-38
0.8445648 0.40504962 0.61000186 1.0694693e-38
0.85544842 0.40493155 0.61000204 1.0694693e-38
0.86471313 0.4051227 0.61000204 1.0694693e-38
0.45157832 0.41628796 0.61435974 1.0602497e-38
0.56538606 0.41509598 0.60999995 1.0602497e-38
0.57570499 0.41503969 0.61000007 1.0602497e-38
0.58511484 0.41513985 0.61000025 1.0602497e-38
0.59457672 0.41497338 0.61000043 1.0694693e-38
0.60538107 0.41508833 0.61000043 1.0694693e-38
0.61510801 0.41488111 0.61000037 1.0694693e-38
0.62490749 0.41502544 0.61000055 1.0694693e-38
0.63512212 0.4148494 0.61000055 1.0694693e-38
0.64418083 0.41507581 0.61000055 1.0694693e-38
0.65485758 0.41511807 0.61000067 1.0694693e-38
0.66519684 0.41503626 0.61000067 1.0694693e-38
0.67483598 0.41503528 0.61000067 1.0694693e-38
0.68438917 0.41501376 0.61000085 1.0694693e-38
0.6941359 0.41478541 0.61000085 1.0694693e-38
0.70412821 0.41499066 0.61000091 1.0694693e-38
0.71408945 0.41498974 0.61000097 1.0694693e-38
0.72443724 0.41496676 0.61000127 1.0694693e-38
0.73468924 0.41496578 0.61000127 1.0694693e-38
0.74534118 0.41494229 0.61000133 1.0694693e-38
0.75457424 0.41513446 0.61000144 1.0694693e-38
0.76420653 0.41492623 0.6100015 1.0694693e-38
0.77510524 0.41515324 0.6100015 1.0694693e-38
0.78489769 0.41502637 0.61000156 1.0694693e-38
0.79475915 0.41464096 0.61000156 1.0694693e-38
0.80474639 0.41491997 0.61000162 1.0694693e-38
0.81464356 0.4151257 0.61000168 1.0694693e-38
0.82513165 0.414812 0.61000174 1.0694693e-38
0.8340382 0.41505703 0.61000186 1.0694693e-38
0.84464467 0.41509622 0.61000186 1.0694693e-38
0.85522944 0.41495019 0.61000198 1.0694693e-38
0.86426932 0.4148466 0.6100021 1.0694693e-38
0.41181052 0.42973682 0.61319715 1.0694693e-38
0.44963351 0.4267543 0.61740798 1.0602497e-38
0.56545585 0.42505243 0.60999995 1.0602497e-38
0.57563388 0.42507911 0.61000007 1.0602497e-38
0.58493221 0.42499393 0.61000037 1.0602497e-38
0.59457695 0.42516044 0.61000043 1.0602497e-38
0.60530424 0.42501321 0.61000043 1.0602497e-38
0.61506075 0.42474174 0.61000043 1.0602497e-38
0.62506694 0.4249177 0.61000055 1.0602497e-38
0.63523191 0.42492452 0.61038476 1.0602497e-38
0.64438951 0.42491627 0.61000055 1.0602497e-38
0.6545186 0.42506021 0.61000061 1.0602497e-38
0.66530484 0.42506069 0.61000067 1.0602497e-38
0.67472619 0.42510822 0.61000067 1.0602497e-38
0.68433672 0.42495194 0.61000085 1.0602497e-38
0.69420046 0.42494273 0.61034644 1.0602497e-38
0.70424742 0.42483276 0.61000091 1.0694693e-38
0.71421891 0.42513084 0.61035872 1.0602497e-38
0.7245599 0.42495114 0.61000097 1.0694693e-38
0.73506254 0.42500046 0.61000127 1.0694693e-38
0.74540472 0.42482567 0.61000133 1.0694693e-38
0.75474203 0.42516118 0.61000144 1.0694693e-38
0.76401228 0.42493653 0.6100015 1.0694693e-38
0.77517116 0.42523986 0.6100015 1.0694693e-38
0.78489774 0.42492628 0.61000156 1.0694693e-38
0.79482639 0.42486215 0.61000156 1.0694693e-38
0.80474627 0.424952 0.61000162 1.0694693e-38
0.81487381 0.42496499 0.61000168 1.0694693e-38
0.82513165 0.42497972 0.61000168 1.0694693e-38
0.83403844 0.42494306 0.61000186 1.0694693e-38
0.84456474 0.42512947 0.61000186 1.0694693e-38
0.85501003 0.42496461 0.61000198 1.0694693e-38
0.86449134 0.42493385 0.61000216 1.0694693e-38
0.42246503 0.43912473 0.61585844 1.0694693e-38
0.56559604 0.43501028 0.60999995 1.0602497e-38
0.57584727 0.43494612 0.61000007 1.0602497e-38
0.58520573 0.43484253 0.61000037 1.0602497e-38
0.59450072 0.43500218 0.61000043 1.0602497e-38
0.60515445 0.43511072 0.61000043 1.0602497e-38
0.61510837 0.43505108 0.61000043 1.0602497e-38
0.62522006 0.43499044 0.61000055 1.0602497e-38
0.6351707 0.43510926 0.61000055 1.0602497e-38
0.64433527 0.4350163 0.61000055 1.0602497e-38
0.65485764 0.43499351 0.61000061 1.0602497e-38
0.66519672 0.43506312 0.61000067 1.0602497e-38
0.67467445 0.43497685 0.61000067 1.0602497e-38
0.68455791 0.43508756 0.61000067 1.0602497e-38
0.69430661 0.43500155 0.61000085 1.0602497e-38
0.70418847 0.43489197 0.61000085 1.0602497e-38
0.71427059 0.43502235 0.61000091 1.0602497e-38
0.72431499 0.43492073 0.61000127 1.0602497e-38
0.73481321 0.43504435 0.61000127 1.0602497e-38
0.74546754 0.43471035 0.61000133 1.0602497e-38
0.75474203 0.43486035 0.61000144 1.0602497e-38
0.76420647 0.43493733 0.6100015 1.0602497e-38
0.77517116 0.43507499 0.6100015 1.0602497e-38
0.78472281 0.43514818 0.61000156 1.0602497e-38
0.79475915 0.43507075 0.61000162 1.0602497e-38
0.80474609 0.43498406 0.61000162 1.0694693e-38
0.81487358 0.43506446 0.61000162 1.0694693e-38
0.82513165 0.43514746 0.61000168 1.0694693e-38
0.83403802 0.43482926 0.61000186 1.0694693e-38
0.8443253 0.43517223 0.61000186 1.0694693e-38
0.85522938 0.43499374 0.61000192 1.0694693e-38
0.86449176 0.43501595 0.6100021 1.0694693e-38
0.56568235 0.44468942 0.6099999 1.0602497e-38
0.57570487 0.44498619 0.61000001 1.0602497e-38
0.58506918 0.44491526 0.61000031 1.0602497e-38
0.59450352 0.44484273 0.61000043 1.0602497e-38
0.60530412 0.4450323 0.61000043 1.0602497e-38
0.6151318 0.4449577 0.61034143 1.0602497e-38
0.62490737 0.44506407 0.61000055 1.0602497e-38
0.63512194 0.44511932 0.61000055 1.0602497e-38
0.64428484 0.44509533 0.61000055 1.0602497e-38
0.65451849 0.44493061 0.61000061 1.0602497e-38
0.66514564 0.44486305 0.61000067 1.0602497e-38
0.67489266 0.44504339 0.61000067 1.0602497e-38
0.68450499 0.44502741 0.61000073 1.0602497e-38
0.69424826 0.44498911 0.61000073 1.0602497e-38
0.70412821 0.44494987 0.61000091 1.0602497e-38
0.7141552 0.4449316 0.61000097 1.0602497e-38
0.72461581 0.44511893 0.61000109 1.0602497e-38
0.73487568 0.4448567 0.61000127 1.0602497e-38
0.74521554 0.44482437 0.61000133 1.0602497e-38
0.75474185 0.44488287 0.61000144 1.0602497e-38
0.76440114 0.44494212 0.61000144 1.0602497e-38
0.77517122 0.44491014 0.6100015 1.0602497e-38
0.78489774 0.44538486 0.61000156 1.0602497e-38
0.79475915 0.44503635 0.61000162 1.0602497e-38
0.80474633 0.44501606 0.61000162 1.0602497e-38
0.8148737 0.44516397 0.61000162 1.0602497e-38
0.82513195 0.44497618 0.61000174 1.0602497e-38
0.83403814 0.44505626 0.61000186 1.0602497e-38
0.84480333 0.44494814 0.61000186 1.0602497e-38
0.85522968 0.44501618 0.61000198 1.0602497e-38
0.8644914 0.44509801 0.61000216 1.0602497e-38
0.47946337 0.45244166 0.61780554 1.0602497e-38
0.56569636 0.453619 0.61000001 1.0602497e-38
0.57550842 0.45366159 0.60999995 1.0602497e-38
0.58501035 0.45380905 0.61042762 1.0602497e-38
0.59467793 0.45347664 0.61000031 1.0602497e-38
0.60540664 0.45356378 0.61000031 1.0602497e-38
0.61530244 0.45368552 0.61000037 1.0602497e-38
0.62506664 0.45354629 0.61000049 1.0602497e-38
0.63517094 0.45380569 0.61000055 1.0602497e-38
0.64428514 0.45361111 0.61000055 1.0602497e-38
0.65469116 0.45342144 0.61000061 1.0602497e-38
0.66525316 0.45350283 0.61000067 1.0602497e-38
0.67478353 0.4537605 0.61000067 1.0602497e-38
0.68444729 0.45355988 0.61000085 1.0602497e-38
0.69400096 0.45358899 0.61000091 1.0602497e-38
0.70418805 0.45361683 0.61000097 1.0602497e-38
0.71452415 0.45364475 0.61000115 1.0602497e-38
0.72431481 0.4536877 0.61000109 1.0602497e-38
0.73487568 0.45346695 0.61000121 1.0602497e-38
0.74566954 0.45349428 0.61000127 1.0602497e-38
0.75474238 0.45361206 0.61000139 1.0602497e-38
0.76393402 0.45373145 0.6100015 1.0602497e-38
0.77526373 0.45352668 0.6100015 1.0602497e-38
0.78489721 0.4536348 0.61000156 1.0602497e-38
0.7946651 0.45374531 0.61000156 1.0602497e-38
0.80474585 0.45337614 0.61000162 1.0602497e-38
0.81508178 0.45373598 0.61000162 1.0602497e-38
0.82539994 0.45346421 0.6100018 1.0602497e-38
0.83403778 0.45357886 0.61000192 1.0602497e-38
0.84446418 0.45369259 0.61000192 1.0602497e-38
0.85522902 0.45331067 0.61000204 1.0602497e-38
0.86449087 0.45378953 0.61000204 1.0602497e-38
0.4353714 0.47959271 0.61861324 1.0602497e-38
0.35596389 0.49479157 0.61455953 1.0694693e-38
0.39978918 0.51516443 0.61528921 1.0694693e-38
0.38161066 0.52160341 0.61468089 1.0602497e-38
0.44008395 0.55302155 0.61323732 1.0602497e-38
0.28696302 0.56109023 0.61543185 4.1326169e-39
0.2951619 0.56110728 0.61488301 4.1326169e-39
0.30063409 0.56111848 0.61621761 4.1326169e-39
0.31512347 0.59883076 0.61542183 1.032555e-38
0.30726406 0.60658514 0.61305064 1.0602497e-38
0.42927593 0.61719549 0.61399859 1.0602497e-38
0.37559879 0.6397534 0.61663234 1.0602497e-38
0.40004885 0.63138086 0.61483276 1.0602497e-38
0.37932965 0.64778274 0.61977142 1.0602497e-38
0.43134466 0.6756835 0.61436909 1.0602497e-38
0.35708565 0.68126178 0.61735773 1.0602497e-38
0.38451707 0.71532136 0.61859268 1.0510302e-38
0.45818642 0.72332269 0.619645 1.0602497e-38
0.39731237 0.74711865 0.61872643 1.0510302e-38
0.41349804 0.76789016 0.61051106 1.0510302e-38
0.36900792 -0.6869449 0.62893015 1.0879084e-38
0.38228169 -0.66823488 0.62119383 1.0879084e-38
0.37225825 -0.64803171 0.62202156 1.0879084e-38
0.42797548 -0.63968432 0.62782246 1.097128e-38
0.36992353 -0.61997819 0.6233514 1.0879084e-38
0.37765911 -0.60528576 0.62046719 1.097128e-38
0.38488203 -0.60259771 0.62224513 1.097128e-38
0.27967271 -0.55892706 0.62898612 1.1164145e-41
0.2853094 -0.5589155 0.62524962 1.1164145e-41
0.29503888 -0.55889529 0.62512404 1.1164145e-41
0.30022028 -0.55888468 0.62171185 1.1164145e-41
0.3339574 -0.55344117 0.62193185 1.0879444e-38
0.40483642 -0.54082006 0.62820888 1.1063476e-38
0.29450244 -0.51528382 0.62949467 1.1063476e-38
0.41412032 -0.5013023 0.62869841 1.1155671e-38
0.31768668 -0.46776813 0.62884307 1.1063476e-38
0.37658975 -0.4617027 0.6206407 1.1155671e-38
0.44155008 -0.46026853 0.62893701 1.1155671e-38
0.36688268 -0.45228565 0.62144971 1.1063476e-38
0.44494459 -0.43421516 0.6203782 1.1155671e-38
0.35967398 -0.42518324 0.6202668 1.097128e-38
0.44596505 -0.42021573 0.62944341 1.097128e-38
0.39232963 -0.41189611 0.62371927 1.097128e-38
0.41671309 -0.41929027 0.62407458 1.097128e-38
0.53794342 -0.41938093 0.62255794 1.097128e-38
0.83741701 -0.41018477 0.62411922 1.1063476e-38
0.68496221 -0.40653998 0.62561041 1.097128e-38
0.86879057 -0.40380865 0.62474245 1.1063476e-38
0.57902414 -0.3990851 0.6204806 1.097128e-38
0.55709022 -0.3826153 0.62427217 1.097128e-38
0.86177301 -0.38803557 0.62457883 1.1063476e-38
0.52266598 -0.36305884 0.62042594 1.097128e-38
0.83691907 -0.36953002 0.62943476 1.1063476e-38
0.72226763 -0.34315315 0.62847602 1.097128e-38
0.46134162 -0.33970416 0.62163675 1.0879084e-38
0.53937405 -0.33506793 0.62695128 2.8599577e-39
0.76506472 -0.33085385 0.62878621 1.097128e-38
0.51913387 -0.32437092 0.6226396 3.7818916e-39
0.52093345 -0.32831788 0.62562811 1.9372573e-39
0.84734261 -0.32711831 0.62547874 1.097128e-38
0.35790989 -0.31593037 0.6219905 1.0879084e-38
0.36117992 -0.3179464 0.62437361 1.0879084e-38
0.51881754 -0.31541595 0.62405092 3.3205687e-39
0.5189296 -0.30451122 0.62599224 2.9521519e-39
0.52006686 -0.30134922 0.62184662 3.4127657e-39
0.51956272 -0.2966767 0.62717992 2.8599577e-39
0.52048194 -0.2941494 0.62427598 3.2287346e-39
0.43101376 -0.28777507 0.62140816 1.0879084e-38
0.52117473 -0.28536355 0.62582666 3.0443461e-39
0.34401542 -0.27708831 0.62673682 0
0.42223495 -0.2712405 0.62375873 1.0879084e-38
0.52250111 -0.27540228 0.62596047 3.3205701e-39
0.46496761 -0.26051438 0.62034589 1.0879084e-38
0.52406847 -0.26471794 0.62531435 3.5971542e-39
0.78532368 -0.26315743 0.62462234 1.097128e-38
0.44649056 -0.2504119 0.62713671 1.0879084e-38
0.52559477 -0.25461632 0.62552774 4.3347094e-39
0.48114154 -0.245887 0.62490404 1.0879084e-38
0.52697057 -0.24507692 0.62539989 4.7034863e-39
0.52819622 -0.23505409 0.62560034 6.5470178e-39
0.47165662 -0.2273875 0.62512416 1.0879084e-38
0.52917051 -0.2263519 0.62610477 6.8236033e-39
0.53065062 -0.22332413 0.6221323 4.4268924e-39
0.45905271 -0.21913657 0.6288051 2.9517932e-39
0.52977234 -0.21933372 0.62809736 9.5887281e-39
0.53075379 -0.21486314 0.62658828 8.2983592e-39
0.75497097 -0.21472974 0.62965202 1.097128e-38
0.53188598 -0.20447762 0.62638217 6.1782366e-39
0.77869374 -0.20071918 0.62989354 1.097128e-38
0.52921057 -0.19440453 0.623335 1.0879084e-38
0.53333414 -0.19477305 0.62519473 3.6893344e-39
0.68500853 -0.19526456 0.6248911 1.097128e-38
0.76639789 -0.19112022 0.62421888 1.097128e-38
0.53525627 -0.18491694 0.62498015 2.8599339e-39
0.81062931 -0.18802197 0.62429971 1.097128e-38
0.50329429 -0.17520295 0.62977445 1.0326271e-38
0.53802294 -0.17489606 0.6252529 4.4153471e-39
0.83586282 -0.17660993 0.62866968 1.0879084e-38
0.53984571 -0.16949286 0.62560886 5.4240732e-39
0.54184419 -0.16445298 0.62501913 5.977247e-39
0.55605394 -0.16113725 0.62274712 1.9372601e-39
0.56352705 -0.16302225 0.62317663 2.2142169e-39
0.57145262 -0.16494118 0.62144184 2.0298187e-39
0.72777724 -0.16191514 0.6209842 1.097128e-38
0.86708629 -0.16662771 0.62320834 1.097128e-38
0.54532313 -0.15895034 0.62290931 4.6973346e-39
0.55279386 -0.15951604 0.62072092 1.7528618e-39
0.4301157 -0.1426779 0.62191033 1.0879084e-38
0.5076049 -0.14791714 0.62169451 1.0879084e-38
0.52574521 -0.14573206 0.62365085 1.0879084e-38
0.5981729 -0.14296657 0.62181294 1.0879084e-38
0.69216514 -0.14531446 0.62711889 1.0879084e-38
0.52851874 -0.13506503 0.62614274 3.1340152e-39
0.60381311 -0.13434592 0.62309951 1.0879084e-38
0.67864847 -0.13407138 0.6285975 1.0879084e-38
0.8180123 -0.13103576 0.62823397 1.0879084e-38
0.51524937 -0.12035135 0.62714934 1.0879084e-38
0.77480918 -0.12174464 0.62708759 1.0879084e-38
0.40824509 -0.11537769 0.62548673 1.0786889e-38
0.48711011 -0.11539162 0.62584496 1.0879084e-38
0.49645489 -0.11304251 0.62349957 1.0879084e-38
0.52511197 -0.11598219 0.62118584 1.0879084e-38
0.70501804 -0.11560428 0.62040716 1.0879084e-38
0.81664306 -0.11074497 0.62122458 1.0879084e-38
0.35272366 -0.10897041 0.62939835 7.8366285e-39
0.423509 -0.097355373 0.62265629 1.0786889e-38
0.70455557 -0.097754486 0.62320518 1.0879084e-38
0.3708525 -0.080028877 0.6214962 1.0786889e-38
0.47503856 -0.082691006 0.62618452 1.0879084e-38
0.52963012 -0.080780484 0.62737435 1.1708483e-38
0.53088468 -0.081841789 0.62553716 1.1708842e-38
0.75258738 -0.087208726 0.62766725 1.0879084e-38
0.43499047 -0.076379083 0.62751436 1.0786889e-38
0.51759976 -0.072445281 0.62484163 9.5883455e-39
0.52428317 -0.07564427 0.62543607 1.0602495e-38
0.69160658 -0.0783531 0.62521213 1.0879084e-38
0.72867918 -0.074474268 0.62443638 1.0879084e-38
0.85416925 -0.075184733 0.62392092 1.0879084e-38
0.50881726 -0.060098313 0.62474561 9.0351717e-39
0.51390731 -0.065203778 0.62547606 8.9429761e-39
0.71196848 -0.063050188 0.6204679 1.0879084e-38
0.73117518 -0.060906786 0.62331527 1.0879084e-38
0.83405745 -0.064651765 0.62133974 1.0879084e-38
0.32369423 -0.053788554 0.62392122 0
0.47272462 -0.05471009 0.62878603 8.9123633e-39
0.5045945 -0.05475799 0.62577385 1.0694693e-38
0.65407073 -0.059072215 0.62140006 1.0879084e-38
0.49792296 -0.042831555 0.62657273 1.1616647e-38
0.50094533 -0.047951002 0.62460136 1.1708483e-38
0.78336817 -0.045553621 0.6243977 1.0879084e-38
0.49763456 -0.036622472 0.6262992 1.1616648e-38
0.50206137 -0.032529134 0.62381548 1.1616645e-38
0.46942738 -0.023433488 0.62572169 1.0786889e-38
0.50713331 -0.027089801 0.62550241 1.1616285e-38
0.51258582 -0.022128107 0.62493551 1.1616286e-38
0.34154356 -0.013014646 0.62583733 1.0786889e-38
0.51793838 -0.01754507 0.62503862 1.1616285e-38
0.52323353 -0.013008431 0.6247353 1.0230463e-38
0.74167663 -0.010398036 0.62220001 1.0879084e-38
0.47008869 -0.0044264309 0.62390357 1.1523369e-38
0.52804703 -0.0087569999 0.62548941 7.2747793e-39
0.53456581 -0.0032252769 0.62522501 7.1825809e-39
0.53937745 0.0010456486 0.62628937 6.5354066e-39
0.54452121 0.0056761587 0.6251716 7.1825809e-39
0.38122207 0.011542635 0.62703443 1.0786889e-38
0.55486327 0.015046311 0.62514204 6.8130753e-39
0.56006789 0.019506915 0.62498868 7.0900251e-39
0.72691876 0.014356891 0.62115842 1.0786889e-38
0.77250546 0.01601018 0.62094057 1.0879084e-38
0.80244219 0.018424913 0.62440163 1.0879084e-38
0.56595695 0.024786668 0.62569839 6.9052709e-39
0.57102937 0.029546084 0.62479693 1.1062025e-38
0.67676133 0.028785497 0.6223796 1.0879084e-38
0.73108774 0.026281631 0.62988269 1.0879084e-38
0.79708725 0.0267011 0.62672013 1.0879084e-38
0.83677977 0.020180911 0.62376386 1.0879084e-38
0.50625676 0.035228632 0.62126774 1.0786889e-38
0.54283673 0.033957448 0.62335688 1.0786529e-38
0.57599151 0.034102287 0.62578309 1.1523366e-38
0.58263338 0.038927879 0.62447113 1.1338253e-38
0.70241064 0.031012043 0.62604916 1.0786889e-38
0.58821374 0.042110074 0.62492776 1.1243897e-38
0.59222889 0.044173859 0.62427783 1.1336814e-38
0.62749392 0.048711374 0.62027431 1.0786889e-38
0.67784047 0.043561041 0.62025571 1.0786889e-38
0.50038445 0.053490691 0.62480134 1.0786889e-38
0.76697719 0.055368438 0.62065136 1.0879084e-38
0.60479647 0.066337429 0.62549454 1.0786889e-38
0.82732558 0.066205814 0.62030649 1.0786889e-38
0.56202537 0.073963165 0.62178355 1.0786889e-38
0.62112141 0.078780323 0.62750167 1.0786889e-38
0.70301646 0.07573466 0.62129122 1.0786889e-38
0.37070236 0.10656914 0.62685913 1.0786889e-38
0.3398453 0.11010267 0.62227947 1.0786889e-38
0.49302801 0.12661862 0.62845606 1.0786889e-38
0.70690495 0.12349199 0.62537628 1.0786889e-38
0.85134429 0.12032617 0.62411737 1.0786889e-38
0.36873499 0.1367216 0.62102067 1.0694693e-38
0.84718686 0.13186505 0.6254009 1.0786889e-38
0.83740926 0.14309755 0.62544465 1.0786889e-38
0.7263478 0.15335916 0.62930954 1.0786889e-38
0.78189766 0.15295857 0.62200898 1.0786889e-38
0.50201839 0.16004929 0.62593025 1.0786889e-38
0.56901377 0.16786766 0.6290589 1.0786889e-38
0.70450455 0.16350296 0.6276148 1.0786889e-38
0.82354426 0.16055435 0.6217792 1.0786889e-38
0.4152284 0.17816523 0.62331241 1.0694693e-38
0.81669474 0.17125002 0.62965727 1.0786889e-38
0.6954174 0.180572 0.6281364 1.0694693e-38
0.441899 0.19907396 0.62735695 1.0694693e-38
0.4543907 0.19796121 0.62859386 3.8646242e-39
0.44741985 0.20647126 0.62666613 4.4185225e-39
0.4514128 0.20159198 0.62649721 4.141574e-39
0.82869762 0.20543572 0.62094164 1.0786889e-38
0.32350966 0.21680413 0.6234954 7.7444329e-39
0.43863121 0.21849731 0.62624878 4.5110782e-39
0.442368 0.21335378 0.62644064 4.4192441e-39
0.43431598 0.22479427 0.62709171 4.1419342e-39
0.60435992 0.22836784 0.625835 1.0694693e-38
0.61083692 0.22915195 0.62545615 1.0694693e-38
0.42906296 0.23431145 0.62876201 3.77243e-39
0.43092236 0.23071252 0.625875 4.2337697e-39
0.76441443 0.23263577 0.62037081 1.0786889e-38
0.43731698 0.24663372 0.62524474 1.0694693e-38
0.82209468 0.24953255 0.62587249 1.0786889e-38
0.40169552 0.2577858 0.62942421 1.0694693e-38
0.55608428 0.25234401 0.62591875 1.0694693e-38
0.57170981 0.25942382 0.62973452 1.0694693e-38
0.63628346 0.25927004 0.6252228 1.0694693e-38
0.68697953 0.2595194 0.62840641 1.0694693e-38
0.69849175 0.25653544 0.62374485 1.0694693e-38
0.85006452 0.25589308 0.62967062 1.0694693e-38
0.44048551 0.26585168 0.62588942 1.0694693e-38
0.71056527 0.26242527 0.62549877 1.0694693e-38
0.35763583 0.2765336 0.62334442 7.7444329e-39
0.41479218 0.2875095 0.62417912 1.0694693e-38
0.68395114 0.29300684 0.62466902 1.0694693e-38
0.49801749 0.30219591 0.62132192 1.0694693e-38
0.36146086 0.31106839 0.62854028 1.0694693e-38
0.85304892 0.31331041 0.62125075 1.0694693e-38
0.3454099 0.32875863 0.62320793 7.7444329e-39
0.596003 0.32425818 0.62911791 1.0694693e-38
0.77320117 0.32978159 0.62894809 1.0694693e-38
0.76307964 0.3348158 0.62569249 1.0694693e-38
0.4937796 0.34945923 0.62207407 1.0694693e-38
0.60158598 0.3491666 0.62408024 1.0694693e-38
0.76001436 0.3487702 0.62987185 1.0694693e-38
0.63507479 0.35545814 0.6226328 1.0694693e-38
0.84393156 0.35188296 0.62754923 1.0694693e-38
0.57868093 0.36605194 0.6260739 1.0694693e-38
0.69391823 0.3638683 0.62522405 1.0694693e-38
0.42503572 0.37232152 0.62210047 1.0602497e-38
0.46642888 0.37276998 0.62619841 1.0694693e-38
0.51081115 0.37755755 0.62002963 1.0694693e-38
0.35661981 0.38576388 0.62369901 1.0510302e-38
0.67757577 0.38125095 0.62924981 1.0694693e-38
0.33705041 0.39121002 0.62474239 1.0602497e-38
0.46444273 0.39571512 0.62237006 1.0694693e-38
0.52399349 0.39512894 0.6276899 1.0602497e-38
0.62462127 0.39167079 0.62870121 1.0602497e-38
0.72293848 0.39294192 0.62542099 1.0602497e-38
0.76500356 0.39879042 0.62943894 1.0694693e-38
0.3625465 0.41502446 0.62627792 1.0602497e-38
0.5441708 0.42795658 0.62839222 1.0602497e-38
0.56113619 0.42415351 0.62380254 1.0694693e-38
0.57331496 0.42134458 0.62848544 1.0602497e-38
0.58877492 0.42181599 0.62425584 1.0602497e-38
0.85245138 0.42129785 0.62057388 1.0694693e-38
0.62496132 0.43200889 0.62044573 1.0602497e-38
0.29149142 0.44928208 0.62119675 1.0694693e-38
0.64397424 0.44148701 0.62958258 1.0602497e-38
0.65763783 0.44229823 0.62070292 1.0602497e-38
0.41356111 0.46200171 0.62963283 1.0694693e-38
0.38867277 0.47564304 0.62611884 1.0694693e-38
0.40400404 0.49250123 0.62095022 1.0602497e-38
0.39378905 0.53703749 0.62688792 1.0694693e-38
0.31835321 0.54187888 0.62580574 1.0602497e-38
0.27992544 0.56107557 0.62826878 4.1326169e-39
0.28533614 0.56108677 0.62498319 4.1326169e-39
0.29491979 0.56110656 0.62505436 4.1326169e-39
0.3005361 0.56111825 0.62655354 4.1326169e-39
0.41561124 0.57737267 0.62738466 1.0602497e-38
0.31752545 0.61822307 0.62286544 1.0602497e-38
0.37218511 0.62642968 0.62560147 1.0602497e-38
0.39268175 0.62043983 0.62698579 1.0602497e-38
0.36869159 -0.61649287 0.6321305 1.097128e-38
0.29213282 -0.56403625 0.63519621 1.1164145e-41
0.27844518 -0.5589295 0.63606125 1.1164145e-41
0.28510985 -0.55891567 0.63501269 1.1164145e-41
0.29493082 -0.55889529 0.634983 1.1164145e-41
0.3018102 -0.55841082 0.63579595 1.4848537e-39
0.54317719 -0.37959144 0.63008165 1.097128e-38
0.52373785 -0.34148011 0.63788617 1.097128e-38
0.52362311 -0.33064562 0.63060528 1.2918697e-39
0.51729363 -0.32303828 0.63735491 2.8596003e-39
0.52232617 -0.32983381 0.63805616 2.5833624e-39
0.51657462 -0.31465027 0.63627046 2.8599605e-39
0.52785999 -0.31211439 0.63523674 2.8599577e-39
0.53545994 -0.31403536 0.63367343 5.0719101e-39
0.51874644 -0.30508009 0.63482523 2.8599577e-39
0.52025801 -0.30048686 0.63832796 2.8599577e-39
0.53114086 -0.30260056 0.63887453 3.3205659e-39
0.51982135 -0.29749364 0.63064641 2.8599577e-39
0.52115178 -0.29466429 0.63537145 2.8599577e-39
0.52250963 -0.28497714 0.63493133 2.8599577e-39
0.52390361 -0.27475139 0.63498032 3.0443461e-39
0.52497512 -0.26522869 0.63497049 7.28458e-39
0.52654976 -0.2551237 0.6350053 1.1524815e-38
0.52792561 -0.24472573 0.6353209 1.1616651e-38
0.52865928 -0.23515357 0.63514751 1.1616651e-38
0.52953345 -0.22546013 0.63423496 1.1708845e-38
0.53007042 -0.2207939 0.63645673 1.1801041e-38
0.52999341 -0.21911623 0.63241881 1.1708845e-38
0.53073961 -0.21469356 0.63571638 1.1708845e-38
0.53200042 -0.20511745 0.63493794 1.1708845e-38
0.51701283 -0.19309555 0.63575906 7.5607955e-39
0.5336327 -0.19507402 0.63505465 7.6529996e-39
0.53596455 -0.18506205 0.6350866 2.8599577e-39
0.53845173 -0.17545545 0.63497722 3.0425441e-39
0.54030567 -0.17061548 0.63697475 2.9514302e-39
0.54228359 -0.16486195 0.63509405 5.1467885e-39
0.54440987 -0.15956914 0.63531154 6.2448278e-39
0.5531413 -0.15087068 0.63297284 4.9652769e-39
0.52588755 -0.14875236 0.63840032 6.4548291e-39
0.39760166 -0.1305072 0.63116974 1.0879084e-38
0.47448951 -0.12011339 0.63051641 1.0879084e-38
0.5292505 -0.080484949 0.63071936 1.530411e-38
0.53286868 -0.081628747 0.6318261 1.5304112e-38
0.51947999 -0.071421228 0.63393205 9.0351717e-39
0.52496982 -0.076077305 0.63355279 1.2261657e-38
0.48944551 -0.06321729 0.63664418 8.9429761e-39
0.50725168 -0.06123827 0.635858 9.5883455e-39
0.51424098 -0.065880038 0.63494927 8.9429761e-39
0.50522494 -0.05511177 0.63497514 1.0602137e-38
0.49857864 -0.043501683 0.63464779 1.1430812e-38
0.50109017 -0.048221998 0.63516492 1.1616285e-38
0.49740595 -0.036873769 0.63546902 1.1150269e-38
0.50207764 -0.031721927 0.63504934 1.1149189e-38
0.51262712 -0.034439012 0.63424474 1.0967676e-38
0.50696266 -0.027283808 0.63498479 1.1149187e-38
0.51293635 -0.022054374 0.63514543 1.0318346e-38
0.53062302 -0.023172582 0.63854128 1.0786529e-38
0.51748133 -0.018105429 0.63442254 1.0411622e-38
0.52310824 -0.0132305 0.63414246 9.2098254e-39
0.5285387 -0.0085565019 0.63452494 6.3456175e-39
0.53407532 -0.0038412418 0.63483202 6.6204066e-39
0.53865349 0.00011764979 0.63518506 6.8033601e-39
0.54481471 0.0057120975 0.63475108 6.7118833e-39
0.55473417 0.014611328 0.63468045 6.8033601e-39
0.56034499 0.019525364 0.63520432 7.0777904e-39
0.56558067 0.024198204 0.63511193 7.262183e-39
0.57109457 0.028223818 0.63528103 1.0036355e-38
0.57614505 0.033705231 0.63448024 1.0309343e-38
0.58238024 0.038554851 0.63593185 9.936599e-39
0.58688504 0.042118832 0.63583219 9.7500469e-39
0.59190387 0.045677662 0.63568848 9.5642165e-39
0.41678774 0.13053562 0.63015902 1.0786889e-38
0.49784103 0.14946616 0.63002378 1.0786889e-38
0.59713626 0.16886923 0.63370025 1.0786889e-38
0.45527655 0.19719183 0.6351428 5.4377401e-39
0.46241206 0.19447117 0.63505971 5.7114291e-39
0.44715744 0.20573495 0.63496214 4.8842034e-39
0.45077491 0.20083371 0.63505262 5.0693191e-39
0.41605243 0.21316908 0.63201445 5.8126799e-39
0.43865821 0.21832719 0.63430399 4.6994506e-39
0.4422923 0.21327297 0.63491333 4.884925e-39
0.60563666 0.21214274 0.63000184 1.0786889e-38
0.62500942 0.2136918 0.63014239 1.0786889e-38
0.43396273 0.22492313 0.635423 5.0696792e-39
0.42852554 0.23554315 0.63555282 5.1629595e-39
0.43045241 0.23060451 0.63519382 4.9774822e-39
0.42830971 0.24261935 0.63580626 5.3473493e-39
0.43144578 0.24767755 0.63774693 5.6232146e-39
0.43307152 0.25026879 0.63462877 4.6994478e-39
0.78097296 0.31616616 0.63119638 1.0694693e-38
0.63549757 0.3383815 0.63052756 1.0694693e-38
0.54995054 0.34022474 0.63032979 1.0694693e-38
0.78298432 0.34915042 0.63219571 1.0694693e-38
0.43687618 0.3879019 0.63027781 1.0694693e-38
0.27831668 0.56107211 0.63599926 4.1326169e-39
0.28487316 0.5610857 0.63477635 4.1326169e-39
0.29498914 0.56110656 0.635207 4.1326169e-39
0.3006773 0.56111836 0.63541436 4.1326169e-39
0.27641892 -0.55892587 0.64573985 1.1164145e-41
0.28498635 -0.55891573 0.64495176 1.1164145e-41
0.29493922 -0.55889517 0.64496309 1.1164145e-41
0.30037552 -0.55888385 0.64591312 1.1164145e-41
0.52783763 -0.33785689 0.64286977 1.097128e-38
0.51818454 -0.32220975 0.64410383 3.0443587e-39
0.52050978 -0.32701394 0.64253861 2.5830051e-39
0.51771957 -0.31409743 0.6453321 2.8599605e-39
0.50500679 -0.30805528 0.64055884 1.0879084e-38
0.51920974 -0.30709848 0.64397752 2.8599577e-39
0.52074599 -0.30288005 0.64599758 2.8599577e-39
0.52257574 -0.29497507 0.6449734 2.8599577e-39
0.52418816 -0.28497514 0.64499426 2.8599577e-39
0.5251863 -0.27496904 0.64496046 4.795326e-39
0.52643877 -0.26499507 0.64488226 1.1616651e-38
0.52782446 -0.25517809 0.645114 1.1708845e-38
0.52915227 -0.2452756 0.6453312 1.1708845e-38
0.5296374 -0.23572169 0.642676 1.1801041e-38
0.53040934 -0.23436189 0.64710945 1.1708845e-38
0.52990484 -0.22715421 0.64082068 1.1801041e-38
0.53076774 -0.22482827 0.64551097 1.1708845e-38
0.53145069 -0.215166 0.6453808 1.1801041e-38
0.53264832 -0.20489834 0.64478618 1.1801041e-38
0.53457987 -0.19504167 0.64475751 1.1155678e-38
0.53670049 -0.18501438 0.6447953 3.1365418e-39
0.53888059 -0.17694813 0.64478767 2.8599577e-39
0.54077971 -0.17220385 0.64575601 2.8599577e-39
0.54376745 -0.16486585 0.64464569 2.9514316e-39
0.55199653 -0.16132395 0.6425494 3.5053467e-39
0.54578841 -0.15952475 0.64296013 4.4150024e-39
0.52964026 -0.080749214 0.6480093 9.0013192e-39
0.53314984 -0.083274387 0.64593595 9.2811473e-39
0.51846206 -0.070534162 0.64506531 8.8270116e-39
0.52409095 -0.07538183 0.64392787 9.8436845e-39
0.50973856 -0.060487799 0.64423537 8.734816e-39
0.51405472 -0.065492332 0.64470208 8.7333755e-39
0.50573421 -0.054997101 0.64412141 9.0070813e-39
0.49876711 -0.042715054 0.64532018 9.0989168e-39
0.5016222 -0.047185898 0.64252502 9.2833081e-39
0.49818122 -0.037293643 0.64538801 9.1889516e-39
0.50255436 -0.032461785 0.64582366 9.000959e-39
0.50734484 -0.027466584 0.64537847 7.8985729e-39
0.51231402 -0.022816688 0.64589834 6.6125159e-39
0.51741183 -0.01830628 0.64478308 6.4295651e-39
0.52351516 -0.012958448 0.64455628 6.7047101e-39
0.55090404 -0.011167385 0.64291555 6.9002347e-39
0.5287497 -0.0083103171 0.64520156 8.4488656e-39
0.53380877 -0.0038581651 0.6451959 8.6325366e-39
0.53849787 0.00028455196 0.64498633 8.7243721e-39
0.54494882 0.0061293188 0.64499778 8.6325366e-39
0.55483222 0.015033235 0.64515489 8.7243721e-39
0.5600487 0.019539408 0.64243478 8.7243721e-39
0.56580782 0.02474655 0.64507133 8.7243721e-39
0.57105243 0.029431833 0.64529276 8.7247309e-39
0.57581568 0.033309914 0.64480209 8.6339744e-39
0.58151245 0.038641118 0.64641881 8.7243721e-39
0.58686227 0.042894404 0.64623773 8.7247323e-39
0.59122729 0.046323322 0.64602184 8.8176482e-39
0.45588803 0.19745012 0.64314276 6.5509596e-39
0.46147713 0.19477037 0.6447677 7.4721886e-39
0.44737032 0.20593596 0.64462721 6.1821757e-39
0.45105502 0.20104361 0.64631277 6.2743727e-39
0.43889171 0.21826251 0.644858 6.1821757e-39
0.44253784 0.2130945 0.64517945 6.1821757e-39
0.46195516 0.21033533 0.64802915 5.7197612e-39
0.43414596 0.22487506 0.64509076 6.1821757e-39
0.42851374 0.23538589 0.64491498 6.1821757e-39
0.43025699 0.23069713 0.64697593 6.1821757e-39
0.42889971 0.24307215 0.64384758 6.0896171e-39
0.43123889 0.24723475 0.6450097 6.6391714e-39
0.4346543 0.25124601 0.64561111 6.6384455e-39
0.27423897 0.55859905 0.64883685 4.1326169e-39
0.27663833 0.56106848 0.64550793 4.1326169e-39
0.28488263 0.56108558 0.64491916 4.1326169e-39
0.29494721 0.56110638 0.64512247 4.1326169e-39
0.30058068 0.56111801 0.64538324 4.1326169e-39
0.26488957 -0.56155026 0.65695351 1.1164145e-41
0.26928627 -0.55894804 0.65845776 1.1164145e-41
0.27520239 -0.55893582 0.65521854 1.1164145e-41
0.28503004 -0.5589155 0.65496945 1.1164145e-41
0.29497573 -0.55889487 0.65508372 1.1164145e-41
0.3002677 -0.55888391 0.65572155 1.1164145e-41
0.51831412 -0.32378218 0.65267962 3.2287528e-39
0.52091837 -0.32448795 0.65668738 3.136553e-39
0.5188185 -0.31611416 0.65135074 3.5975437e-39
0.52127343 -0.31474081 0.65512836 3.2287528e-39
0.51945102 -0.30983984 0.65043586 2.8599577e-39
0.52173084 -0.30519909 0.65427929 3.136553e-39
0.52377141 -0.29506677 0.65501159 2.8599577e-39
0.52530855 -0.28473738 0.65516245 2.8599577e-39
0.50646049 -0.27751151 0.65515792 4.4269064e-39
0.52631462 -0.27526098 0.65494359 7.8373894e-39
0.52753019 -0.26514709 0.65520918 9.9556833e-39
0.52882886 -0.25484145 0.65473998 9.5876224e-39
0.53002626 -0.25041354 0.6595521 8.0181331e-39
0.52962255 -0.24760634 0.65328145 9.5872623e-39
0.5303725 -0.24392459 0.65609717 8.4801931e-39
0.54650867 -0.24864522 0.65063262 8.6671389e-39
0.53128922 -0.23490295 0.65493155 8.8486155e-39
0.53229737 -0.22490692 0.65503258 9.1252024e-39
0.53304791 -0.21498366 0.65556824 9.5865392e-39
0.53363872 -0.2052626 0.65495926 1.1340064e-38
0.53494161 -0.19476976 0.65525216 8.8511714e-39
0.53707737 -0.18485637 0.65496051 2.8599577e-39
0.53928673 -0.17789508 0.65511304 2.8599577e-39
0.54095381 -0.17300569 0.65504122 2.8599577e-39
0.54416341 -0.16462041 0.65483105 2.8599577e-39
0.54901868 -0.15899748 0.65602672 2.8599577e-39
0.55233443 -0.15704267 0.65820241 2.8599577e-39
0.53346676 -0.082386367 0.65161371 9.18463e-39
0.51911902 -0.071438335 0.65495276 8.7243721e-39
0.52348459 -0.075606562 0.65418822 8.8162076e-39
0.50994182 -0.061192621 0.65751028 8.7243721e-39
0.51402175 -0.065801769 0.65530437 8.7243721e-39
0.50490338 -0.055328839 0.65522575 8.7243721e-39
0.49835116 -0.044396486 0.65525138 9.6625359e-39
0.49922627 -0.039206885 0.65041095 9.2768256e-39
0.50299788 -0.03480541 0.65416056 8.0815237e-39
0.51990587 -0.038459919 0.65184689 1.0778244e-38
0.50807655 -0.027419761 0.65562707 6.4284847e-39
0.51261485 -0.022507578 0.65495706 6.2448137e-39
0.52790368 -0.022513162 0.65218806 9.1914726e-39
0.51807964 -0.018036835 0.65403306 6.8876622e-39
0.52391851 -0.012930908 0.65449011 7.8060172e-39
0.5287227 -0.0083286455 0.65559262 8.7243721e-39
0.53386521 -0.0037377193 0.6546998 8.7243721e-39
0.53893119 0.0012458626 0.65516001 8.7243721e-39
0.54476309 0.0064833206 0.65531725 8.7243721e-39
0.53022903 0.010217036 0.65166968 7.9896882e-39
0.555161 0.015708584 0.65487194 8.7243721e-39
0.56065345 0.01047624 0.65199327 8.7243721e-39
0.54997486 0.029762218 0.65201545 8.9307133e-39
0.56475437 0.02416411 0.65511185 8.7243721e-39
0.57057673 0.029373206 0.65528637 8.7243721e-39
0.57612514 0.034348987 0.65516704 8.7243721e-39
0.58142173 0.039034177 0.65453881 8.7243721e-39
